ply
format ascii 1.0
element vertex 2267
property float x
property float y
property float z
end_header
-3157.03 153.075 3631
-3155.24 153.416 3644
-3156 153.884 3660
-3143.81 153.72 3661
-3141.92 154.062 3674
-3139.14 154.361 3686
-3133.78 154.535 3695
-3130.1 154.792 3706
-3128.07 155.133 3719
-3117.62 155.057 3722
1667.39 112.219 2960
1678.05 112.501 2965
1687.62 112.707 2968
2178.1 143.259 3760
2182.37 142.999 3750
2187.2 142.777 3741
1763.3 109.349 2830
1770.59 109.411 2829
2790.82 118.509 2597
2792.89 118.308 2588
2816.54 118.732 2588
2821.91 118.67 2582
3057.07 124.062 2624
3053.87 123.644 2610
3050.61 123.225 2596
3056.72 123.186 2590
3066.4 123.29 2587
3074.94 123.349 2583
3088.29 123.6 2583
-1543.19 56.4941 939
-1545 56.6725 945
-1548.41 56.9101 952
-1546.92 56.9686 956
-1547.05 57.0867 961
-1542.36 57.0275 963
-1539.3 57.0283 966
-1541.02 57.2068 972
-1534.83 57.0916 973
-1534.97 57.2118 978
-1527.29 57.0404 978
-1527.44 57.1617 983
-1524.49 57.1669 986
-1520.03 57.1154 988
-1512.53 56.9494 988
-1512.72 57.0727 993
-1503.79 56.8521 992
-1500.98 56.862 995
-1317.2 55.2311 1083
-1311.49 55.1168 1083
-1305.8 55.0033 1083
-1304.95 55.0936 1087
-1296.92 54.8804 1085
-1298.47 55.0723 1091
-3182.6 161.847 3615
-3176.47 161.983 3623
-3167.72 161.986 3628
-3157.24 161.901 3631
-3152.85 162.127 3641
-3151.03 162.489 3654
-3138 162.272 3654
-3136.14 162.633 3667
-3129.13 162.729 3674
-3124.66 162.957 3684
-3120.17 163.186 3694
-3116.5 163.459 3705
-3102.75 163.204 3704
2167.57 151.351 3759
2181.12 151.72 3765
2185.99 151.485 3756
2190.84 151.25 3747
2199.19 151.258 3744
2792.16 125.699 2609
2796.41 125.583 2602
2800.66 125.467 2595
2808.15 125.498 2591
2821.12 125.771 2592
2826.5 125.706 2586
3064.31 131.514 2630
3058.8 130.972 2614
3048.51 130.229 2594
3053.43 130.137 2587
3059.54 130.096 2581
3066.86 130.106 2576
3083.77 130.523 2579
-1543.55 59.6993 944
-1546.97 59.9503 951
-1548.72 60.1377 957
-1544.01 60.0742 959
-1542.54 60.137 963
-1542.67 60.2624 968
-1541.2 60.3261 972
-1533.43 60.1426 972
-1533.57 60.2695 977
-1516.53 59.72 971
-1515.18 59.7878 975
-1512.3 59.795 978
-1503.27 59.5589 977
-1497.39 59.4469 978
-1502.22 59.7603 986
-1311.24 57.9736 1078
-1305.55 57.8537 1078
-1302.3 57.8416 1080
-1300.27 57.8837 1083
-1294.65 57.766 1083
-1290.25 57.7024 1084
-3182.84 171.145 3630
-3172.31 171.053 3633
-3160.08 170.869 3634
-3157.41 171.202 3646
-3151.26 171.348 3654
-3138.23 171.119 3654
-3134.65 171.407 3665
-3126.8 171.461 3671
-3118.94 171.515 3677
-3113.63 171.711 3686
-3108.31 171.906 3695
-3097.1 171.777 3697
-3092.61 172.019 3707
2163.09 159.263 3751
2177.77 159.737 3759
2183.79 159.574 3752
2192.14 159.581 3749
2201.67 159.675 3748
2789.17 132.4 2606
2792.34 132.226 2598
2798.73 132.206 2593
2804.05 132.135 2587
2811.55 132.168 2583
3066.91 138.79 2632
3060.24 138.166 2615
3046.42 137.223 2592
3051.34 137.126 2585
3055.07 136.976 2577
3059.99 136.881 2570
3073.28 137.159 2570
-1539.21 62.8518 951
-1534.54 62.7864 953
-1533.12 62.8534 957
-1528.7 62.9243 964
-1308.93 60.8588 1076
-1304.46 60.7893 1077
-1301.22 60.7768 1079
-1299.19 60.8211 1082
-1293.57 60.6975 1082
-1291.56 60.7427 1085
-3171.68 179.849 3632
-3157.7 179.557 3631
-3156.78 180.006 3645
-3148.04 180.012 3650
-3138.46 179.969 3654
-3134.89 180.271 3665
-3127.03 180.328 3671
-3118.33 180.336 3676
-3113.86 180.59 3686
-3107.7 180.747 3694
-3095.66 180.562 3695
-3091.17 180.817 3705
-3084.99 180.976 3713
2168.42 167.901 3760
2176.75 167.907 3757
2183.93 167.825 3752
2191.11 167.744 3747
2200.63 167.842 3746
2781.92 138.873 2599
2788.28 138.85 2594
2795.73 138.882 2590
2795.62 138.539 2579
2803.09 138.573 2575
3062.53 145.746 2628
3057.01 145.145 2612
3047.88 144.376 2593
3051.62 144.218 2585
3055.35 144.061 2577
3063.84 144.128 2573
-1524.84 65.3201 942
-1517.03 65.1152 942
-1520.5 65.3946 949
-1520.97 65.6777 959
-1435.15 63.6341 965
-1431.19 63.5903 967
-1430.21 63.6784 971
-1335.51 62.1712 1000
-1316.18 61.4045 990
-1294.36 60.5182 978
-1284.58 60.1922 975
-1281.43 60.1762 977
-1275.69 60.0379 977
-1285.58 60.6366 989
-1322.11 64.3425 1082
-1309.06 63.8525 1076
-1305.8 63.8387 1078
-1301.34 63.7664 1079
-1299.31 63.8129 1082
-1292.5 63.6242 1081
-1289.3 63.613 1083
-3193.85 189.472 3642
-3181.53 189.266 3643
-3164.91 188.803 3639
-3161.36 189.119 3650
-3153.46 189.175 3656
-3146.44 189.285 3663
-3142.83 189.602 3674
-3134.94 189.66 3680
-3126.2 189.668 3685
-3119.17 189.78 3692
-3109.62 189.739 3696
-3095.89 189.442 3695
-3091.41 189.71 3705
-3082.74 189.723 3710
-3079.05 190.043 3721
-432.41 204.764 4821
-421.806 204.273 4810
1491.62 134.463 2929
1501.06 134.745 2933
1509.5 134.936 2935
2171.44 176.392 3765
2176.32 176.118 3756
2182.33 175.938 3749
2190.09 175.899 3745
2198.43 175.908 3742
2784.23 145.455 2590
2788.43 145.32 2583
2790.45 145.072 2574
3066.67 152.751 2620
3054.05 151.769 2598
3055.46 151.488 2588
3058.02 151.264 2579
3073.67 151.688 2581
3077.45 151.525 2573
-1494.29 67.0052 923
-1493.08 67.0842 927
-1496.67 67.3803 934
-1495.44 67.4599 938
-1498.97 67.7549 945
-1476.5 67.6916 964
-1476.86 67.8466 969
-1465.08 67.443 966
-1427.89 66.274 960
-1413.61 65.7469 955
-1405.35 65.4982 954
-1400.09 65.3885 955
-1387.57 64.9389 951
-1385.32 64.9691 954
-1388.87 65.2717 961
-1321.62 64.2634 985
-1308.95 63.7855 980
-1292.39 63.1156 972
-1274.65 62.3847 963
-1271.54 62.3689 965
-1268.45 62.3537 967
-1265.38 62.3391 969
-1264.92 62.4535 973
-1274.8 63.0804 985
-1283.3 63.6409 996
-1300.68 66.4121 1069
-1298.66 66.4605 1072
-1297.86 66.5713 1076
-1297.04 66.6819 1080
-1290.24 66.4847 1079
-1283.48 66.2887 1078
-3210.06 198.246 3630
-3198.56 198.082 3632
-3195.87 198.465 3644
-3182.67 198.195 3644
-3168.65 197.872 3643
-3163.35 198.094 3652
-3157.17 198.262 3660
-3152.71 198.539 3670
-3149.08 198.87 3681
-3140.3 198.877 3686
-3134.09 199.047 3694
-3126.19 199.11 3700
-3116.6 199.066 3704
-3101.17 198.647 3701
-3095.83 198.874 3710
-3085.48 198.779 3713
-3080.13 199.007 3722
-432.704 214.496 4824
-422.883 214.381 4822
-412.902 214.179 4818
104.517 214.26 4831
114.034 214.133 4828
123.643 214.185 4829
1488.91 141.097 2938
1493.76 140.959 2933
1500.14 140.966 2931
1507.03 141.021 2930
2172.75 184.759 3767
2177.63 184.473 3758
2187.14 184.579 3757
2192.58 184.342 3749
2202.7 184.5 3749
1779.73 141.142 2830
1782.65 140.874 2822
1788.07 140.805 2818
2790.94 152.629 2596
2798.41 152.664 2592
2798.31 152.288 2581
3077.11 160.818 2640
3066.98 159.914 2620
3059.06 159.132 2602
3055.77 158.591 2588
3055.96 158.235 2577
3071.6 158.678 2579
3077.77 158.631 2573
-1473.46 69.0228 910
-1477.18 69.3356 917
-1482.46 69.7226 925
-1482.9 69.8828 930
-1484.9 70.1181 936
-1477.49 70.4762 955
-1467.09 70.1226 953
-1472.11 70.5059 961
-1467.92 70.4488 963
-1462.24 70.3201 964
-1413.2 68.5233 950
-1394.55 67.7587 942
-1386.38 67.5014 941
-1375.34 67.1033 938
-1367.32 66.8508 937
-1363.72 66.8139 939
-1364.47 66.991 944
-1366.65 67.2385 950
-1374.52 67.7679 960
-1308.36 66.4616 975
-1293.07 65.828 968
-1277.92 65.1978 961
-1262.88 64.5713 954
-1258.51 64.4887 955
-1254.17 64.4069 956
-1255.08 64.595 961
-1252.06 64.5817 963
-1256.83 64.9704 971
-1260.25 65.2913 978
-1264.91 65.6778 986
-1292.3 68.9337 1062
-1291.54 69.05 1066
-1291.97 69.231 1071
-1289.98 69.283 1074
-1283.2 69.0776 1073
-1274.09 68.7452 1070
-1164.53 64.7736 1034
-1156.22 64.4652 1031
-1163.61 65.0321 1042
-1156.47 64.7874 1040
-1152.69 64.7305 1041
-1145.62 64.4882 1039
-1145.18 64.619 1043
-1138.17 64.3786 1041
-1133.38 64.263 1041
-1127.53 64.0866 1040
-1129.27 64.3419 1046
-1118.08 63.8598 1040
-1103.76 63.196 1031
-3236.12 207.645 3629
-3227.2 207.642 3634
-3216.52 207.527 3637
-3206.76 207.469 3641
-3199.66 207.584 3648
-3185.57 207.245 3647
-3174.14 207.078 3649
-3167.09 207.195 3656
-3159.17 207.257 3662
-3157.27 207.716 3675
-3154.48 208.117 3687
-3146.54 208.181 3693
-3141.15 208.414 3702
-3133.21 208.479 3708
-3124.44 208.489 3713
-3108.14 207.995 3709
-3100.26 208.063 3715
-3085.74 207.684 3713
-3077.07 207.699 3718
-3066.77 207.603 3721
-432.82 224.149 4825
-422.821 223.936 4821
-412.499 223.539 4813
104.436 223.67 4827
113.876 223.399 4821
123.42 223.36 4820
1482.93 146.815 2926
1490.81 146.972 2927
1496.66 146.928 2924
1504.05 147.036 2924
2171.75 192.933 3765
2177.21 192.684 3757
2186.72 192.796 3756
2192.74 192.6 3749
1771.92 147.329 2830
1776.09 147.152 2824
1780.25 146.975 2818
1785.67 146.903 2814
1793 146.988 2813
2793.29 159.197 2587
2792.08 158.741 2575
2802.8 158.965 2574
3063.45 167.26 2628
3055.59 166.442 2610
3055.86 166.07 2599
3059.63 165.89 2591
3062.22 165.647 2582
3079.08 166.174 2585
3085.28 166.126 2579
-1452.01 70.7858 892
-1449.39 70.7992 895
-1448.4 70.8923 899
-1449.02 71.0645 904
-1454.41 71.4719 912
-1458.15 71.7995 919
-1468.42 73.0392 949
-1456.53 72.5952 946
-1463.13 73.0728 955
-1455.93 72.862 955
-1453.34 72.8817 958
-1427.74 72.0404 955
-1404.47 71.0128 944
-1385.86 70.2166 936
-1371.83 69.6502 931
-1357.93 69.0877 926
-1352.91 68.9757 927
-1347.92 68.8648 928
-1347.31 68.9776 932
-1352.44 69.3858 940
-1361.82 70.0135 951
-1366.82 70.4184 959
-1307.75 69.1231 970
-1291.07 68.3894 962
-1277.2 67.8014 956
-1267.43 67.4295 953
-1257.74 67.0597 950
-1253.39 66.9741 951
-1251.7 67.03 954
-1251.31 67.1563 958
-1248.31 67.1428 960
-1249.21 67.3394 965
-1253.95 67.7446 973
-1253.51 67.8706 977
-1249.22 67.7888 978
-1258.95 68.4688 990
-1264.78 68.9392 999
-1254.09 69.599 1026
-1268.11 70.5372 1042
-1269.87 70.7964 1048
-1267.98 70.8529 1051
-1268.5 71.0443 1056
-1259.43 70.6985 1053
-1245.65 70.0864 1046
-1231.98 69.4774 1039
-1219.6 68.938 1033
-1209.65 68.5346 1029
-1202.12 68.2662 1027
-1191.14 67.8003 1022
-1182.56 67.4694 1019
-1185.59 67.8008 1026
-1175.93 67.406 1022
-1172.06 67.3424 1023
-1161.37 66.8853 1018
-1162.11 67.0862 1023
-1151.51 66.6323 1018
-1152.26 66.8338 1023
-1146.25 66.6438 1022
-1152.57 67.1709 1032
-1148.81 67.1118 1033
-1148.38 67.2481 1037
-1139.12 66.8663 1033
-1136.52 66.8742 1035
-1131.73 66.7533 1035
-1123.7 66.4403 1032
-1118.97 66.3217 1032
-1120.75 66.5888 1038
-1117.12 66.5351 1039
-1111.37 66.3543 1038
-1099.25 65.7917 1031
-1093.58 65.6136 1030
-1082.67 65.1186 1024
-3237.3 216.611 3630
-3230.16 216.727 3637
-3222.12 216.785 3643
-3210.58 216.605 3645
-3200.83 216.547 3649
-3185.85 216.133 3647
-3175.3 216.019 3650
-3167.37 216.082 3656
-3160.31 216.206 3663
-3160.13 216.802 3678
-3159.04 217.338 3692
-3152.78 217.521 3700
-3147.37 217.764 3709
-3141.94 218.007 3718
-3131.45 217.899 3721
-3114.28 217.325 3716
-3103.87 217.22 3719
-3087.67 216.709 3715
-3072.38 216.257 3712
-3065.39 216.391 3719
104.292 232.922 4820
113.788 232.784 4817
123.454 232.985 4821
133.053 233.042 4822
1481.52 152.953 2923
1488.37 153.012 2922
1493.7 152.914 2918
1501.59 153.079 2919
2173.34 202.106 3785
2180.57 202.008 3780
2186.07 201.75 3772
2193.87 201.706 3768
2201.09 201.609 3763
2211.84 201.835 3764
1770.18 153.484 2827
1774.97 153.353 2822
1780.39 153.278 2818
1786.44 153.257 2815
1794.41 153.401 2815
2791.28 165.487 2574
2806.36 165.977 2577
3061.45 174.303 2626
3053.59 173.45 2608
3057.37 173.262 2600
3059.97 173.007 2591
3064.93 172.887 2584
3084.19 173.572 2589
3095.2 173.79 2587
-1421.3 72.1309 873
-1422.08 72.3143 878
-1419.63 72.3335 881
-1417.19 72.3537 884
-1425.93 72.946 894
-1425.05 73.0477 898
-1450.07 75.085 937
-1450.58 75.2645 942
-1457.21 75.7627 951
-1453.09 75.7029 953
-1455.07 75.9615 959
-1445.42 75.7683 962
-1430.94 75.1633 957
-1401.7 73.7795 942
-1377.17 72.6387 930
-1363.18 72.0502 925
-1349.32 71.4658 920
-1345.8 71.4278 922
-1343.75 71.468 925
-1346.05 71.7401 931
-1349.75 72.0883 938
-1359.14 72.7422 949
-1364.15 73.1643 957
-1301.18 71.5973 965
-1284.53 70.834 957
-1269.35 70.1492 950
-1263.6 69.9837 950
-1256.58 69.7462 949
-1252.23 69.6573 950
-1250.54 69.7157 953
-1251.47 69.9203 958
-1248.47 69.9062 960
-1246.78 69.9656 963
-1248.95 70.2427 969
-1248.53 70.3746 973
-1244.27 70.2901 974
-1247.66 70.6385 981
-1248.47 70.8424 986
-1244.22 70.7591 987
-1234.98 70.3909 984
-1238.3 70.7384 991
-1230.37 70.4441 989
-1223.75 70.2227 988
-1222.09 70.2865 991
-1226.58 70.7045 999
-1224.9 70.7682 1002
-1229.31 71.1846 1010
-1231.24 71.4593 1016
-1227.11 71.3823 1017
-1224.2 71.3763 1019
-1222.49 71.4408 1022
-1212.45 71.0172 1018
-1206.04 70.8047 1017
-1199.67 70.5937 1016
-1194.51 70.4534 1016
-1189.38 70.314 1016
-1183.12 70.1069 1015
-1176.89 69.901 1014
-1175.33 69.9715 1017
-1169.16 69.7677 1016
-1163.03 69.5652 1015
-1158.07 69.4323 1015
-1158.83 69.6418 1020
-1152.77 69.4421 1019
-1151.26 69.5159 1022
-1147.5 69.4539 1023
-1147.11 69.596 1027
-1143.37 69.5352 1028
-1140.75 69.5426 1030
-1134.84 69.3481 1029
-1131.15 69.2894 1030
-1128.57 69.2986 1032
-1122.73 69.1071 1031
-1118.01 68.9836 1031
-1119.79 69.2619 1037
-1116.17 69.2061 1038
-1111.49 69.0845 1038
-1102.56 68.698 1034
-1099.01 68.6448 1035
-1091.24 68.3276 1032
-1085.62 68.144 1031
-3242.98 225.277 3621
-3244.75 226.019 3638
-3234.02 225.891 3641
-3225.08 225.889 3646
-3213.52 225.702 3648
-3198.5 225.27 3646
-3183.53 224.839 3644
-3172.99 224.72 3647
-3166.8 224.909 3655
-3162.34 225.222 3665
-3163.86 225.965 3682
-3163.61 226.585 3697
-3159.04 226.898 3707
-3151.05 226.966 3713
-3144.77 227.158 3721
-3133.42 226.985 3723
-3117.08 226.447 3719
-3101.65 225.973 3716
-3085.46 225.441 3712
-3071 225.032 3710
-3064.85 225.231 3718
-3054.58 225.129 3721
-451.812 243.229 4821
-441.797 242.998 4817
-431.89 242.816 4814
-422.263 242.788 4814
104.19 242.248 4815
113.631 242.004 4810
123.283 242.213 4814
132.924 242.373 4817
1474.79 159.183 2924
1481.63 159.243 2923
1486.96 159.141 2919
1491.25 158.93 2913
2171.78 210.251 3782
2177.86 210.038 3775
2186.82 210.103 3773
2194.04 210.002 3768
2203.02 210.068 3766
1770.33 159.796 2827
1775.12 159.661 2822
1781.8 159.695 2820
1787.86 159.674 2817
1794.56 159.71 2815
1796.79 159.349 2806
2793.76 172.43 2576
2811.02 173.075 2581
3066.47 181.752 2630
3056.28 180.726 2610
3057.72 180.392 2600
3062.69 180.266 2593
3064.1 179.932 2583
3082.16 180.575 2587
3091.97 180.733 2584
-1409.28 74.191 861
-1403.62 74.0401 862
-1399.64 73.9771 864
-1400.52 74.1715 869
-1399.78 74.2807 873
-1408.61 74.8991 883
-1407.82 75.0076 887
-1403.87 74.948 889
-1428.89 76.5927 914
-1459.58 78.5553 943
-1458.51 78.6573 947
-1460.5 78.9256 953
-1451.79 78.6152 952
-1458.33 79.1313 961
-1454.23 79.0704 963
-1454.66 79.2568 968
-1435.64 78.3815 960
-1409.35 77.1052 947
-1383.3 75.8368 934
-1363.38 74.9003 925
-1348.05 74.212 919
-1344.54 74.1726 921
-1336.68 73.8934 920
-1337.57 74.0971 925
-1341.31 74.4605 932
-1349.31 75.0617 942
-1355.79 75.5812 951
-1330.64 74.8095 951
-1324.46 74.621 951
-1318.33 74.4341 951
-1324.67 74.9518 960
-1325.44 75.1562 965
-1324.82 75.2826 969
-1320.12 75.1767 970
-1308.67 74.6855 966
-1286.52 73.5804 954
-1277.99 73.2507 952
-1266.85 72.7698 948
-1261.11 72.5982 948
-1258.07 72.5808 950
-1253.72 72.4881 951
-1253.33 72.6247 955
-1251.63 72.6854 958
-1248.63 72.6707 960
-1244.35 72.5814 961
-1245.25 72.7944 966
-1244.84 72.9319 970
-1240.59 72.8445 971
-1238.91 72.9078 974
-1235.97 72.8968 976
-1231.77 72.8119 977
-1223.84 72.5049 975
-1224.71 72.7193 980
-1219.33 72.5632 980
-1220.18 72.7777 985
-1218.55 72.8446 988
-1216.91 72.9117 991
-1214.05 72.9057 993
-1213.64 73.0468 997
-1210.79 73.0417 999
-1205.54 72.8913 999
-1202.72 72.8878 1001
-1202.3 73.0301 1005
-1194.73 72.7373 1003
-1190.76 72.6633 1004
-1184.46 72.4459 1003
-1180.54 72.374 1004
-1175.47 72.2308 1004
-1173.93 72.3044 1007
-1170.07 72.2347 1008
-1172 72.5235 1014
-1169.3 72.526 1016
-1165.46 72.458 1017
-1159.35 72.2486 1016
-1158.96 72.3952 1020
-1152.91 72.1877 1019
-1153.65 72.4055 1024
-1148.76 72.2703 1024
-1149.48 72.4883 1029
-1146.84 72.4952 1031
-1143.1 72.4322 1032
-1136.07 72.1598 1030
-1131.28 72.0288 1030
-1126.51 71.8987 1030
-1122.86 71.8392 1031
-1119.22 71.7803 1032
-1119.92 71.9999 1037
-1118.44 72.0807 1040
-1114.82 72.0231 1041
-1108.02 71.7591 1039
-1107.63 71.9101 1043
-1104.05 71.8546 1044
-1099.43 71.731 1044
-3250.46 234.699 3629
-3252.21 235.469 3646
-3239.66 235.206 3647
-3229.82 235.139 3651
-3216.48 234.815 3651
-3201.44 234.366 3649
-3180.35 233.47 3640
-3170.68 233.41 3644
-3167.11 233.798 3655
-3160.92 233.996 3663
-3159.87 234.577 3677
-3163.92 235.54 3697
-3159.34 235.866 3707
-3151.36 235.937 3713
-3145.91 236.199 3722
-3137.09 236.209 3727
-3121.57 235.714 3724
-3106.12 235.22 3721
-3089.91 234.666 3717
-3072.95 234.052 3712
-3065.96 234.196 3719
-3053.22 233.9 3719
-3053.62 234.612 3735
-451.281 252.523 4815
-441.644 252.492 4815
-431.831 252.356 4813
-422.467 252.483 4816
104.306 252.079 4820
113.898 252.139 4821
123.573 252.357 4825
133.209 252.471 4827
1476.42 165.642 2927
1480.23 165.365 2920
1485.55 165.259 2916
1486.25 164.642 2903
2170.82 218.444 3780
2175.73 218.106 3771
2185.84 218.289 3771
2194.23 218.3 3768
2203.79 218.427 3767
1772.35 166.287 2830
1775.9 166.029 2823
1783.22 166.124 2822
1789.28 166.101 2819
1795.99 166.139 2817
1799.5 165.882 2810
3051.67 188.004 2617
3046.1 187.224 2601
3055.74 187.38 2598
3060.69 187.249 2591
3066.84 187.191 2585
3078.96 187.497 2584
3091.15 187.806 2583
-1402.98 76.6587 857
-1394.09 76.3248 856
-1395.01 76.5275 861
-1394.31 76.6415 865
-1395.2 76.8442 870
-1397.67 77.1349 876
-1401.7 77.5127 883
-1396.2 77.3641 884
-1403.32 77.9157 893
-1418.18 78.9001 907
-1442.78 80.595 932
-1451.04 81.221 942
-1450 81.3287 946
-1441.34 81.0083 945
-1443.38 81.2892 951
-1439.35 81.2285 953
-1433.84 81.0844 954
-1411.93 80.0096 944
-1394.68 79.1954 937
-1374.62 78.2182 928
-1357.7 77.4153 921
-1343.86 76.7856 916
-1340.36 76.7453 918
-1331.07 76.3727 916
-1327.64 76.3357 918
-1325.68 76.3826 921
-1328.02 76.6783 927
-1326.05 76.7258 930
-1336.86 77.5145 942
-1330.6 77.3151 942
-1314.55 76.5446 935
-1309.84 76.432 936
-1300.97 76.0765 934
-1289.41 75.5612 930
-1290.36 75.7785 935
-1296.78 76.3191 944
-1293.56 76.2931 946
-1293.08 76.429 950
-1288.53 76.3241 951
-1281.31 76.0605 950
-1276.82 75.9587 951
-1265.68 75.4597 947
-1258.63 75.2021 946
-1254.27 75.1052 947
-1247.3 74.8512 946
-1246.94 74.9938 950
-1245.27 75.0576 953
-1244.9 75.2006 957
-1241.93 75.1866 959
-1241.55 75.3299 963
-1239.87 75.3951 966
-1234.37 75.2272 966
-1231.45 75.216 968
-1227.27 75.1281 969
-1223.11 75.0411 970
-1216.47 74.8009 969
-1217.37 75.0243 974
-1213.27 74.9401 975
-1210.43 74.9335 977
-1210.07 75.0806 981
-1209.7 75.2277 985
-1206.87 75.2225 987
-1207.7 75.446 992
-1204.88 75.4416 994
-1199.65 75.2861 994
-1195.66 75.2076 995
-1192.88 75.2055 997
-1187.73 75.0532 997
-1183.8 74.9773 998
-1181.06 74.9774 1000
-1177.16 74.9031 1001
-1176.79 75.0537 1005
-1172.91 74.9807 1006
-1170.21 74.983 1008
-1168.67 75.0599 1011
-1165.99 75.0631 1013
-1161.01 74.9189 1013
-1157.21 74.8497 1014
-1155.69 74.9286 1017
-1151.91 74.8604 1018
-1151.53 75.0135 1022
-1148.89 75.0199 1024
-1147.38 75.0998 1027
-1146.97 75.2531 1031
-1145.45 75.3335 1034
-1139.51 75.1232 1033
-1134.71 74.9867 1033
-1131.02 74.9238 1034
-1125.17 74.7167 1033
-1120.44 74.5832 1033
-1118.97 74.6668 1036
-1118.57 74.8228 1040
-1116.02 74.8348 1042
-1111.35 74.704 1042
-1112 74.932 1047
-1109.46 74.9453 1049
-1106.93 74.959 1051
-3250.8 243.625 3629
-3251.65 244.357 3645
-3240.89 244.219 3648
-3232.81 244.282 3654
-3219.45 243.947 3654
-3202.64 243.346 3650
-3180.67 242.349 3640
-3167.53 242.02 3640
-3162.23 242.292 3649
-3154.33 242.365 3655
-3155.89 243.167 3672
-3161.67 244.299 3694
-3158.81 244.77 3706
-3149.13 244.712 3710
-3146.23 245.182 3722
-3137.4 245.192 3727
-3123.56 244.809 3726
-3108.1 244.297 3723
-3093.54 243.853 3721
-3071.6 242.822 3710
-3067.09 243.167 3720
-3055.99 242.991 3722
-3056.37 243.729 3738
-460.476 261.883 4810
-451.22 262.067 4814
-441.584 262.035 4814
-431.772 261.894 4812
-422.585 262.135 4817
114.002 261.94 4825
123.633 262.057 4827
133.274 262.175 4829
142.776 262.023 4826
1471.71 172.109 2932
1476.04 171.881 2926
1479.34 171.535 2918
1484.14 171.365 2913
2178.47 227.529 3793
2182.26 227.059 3782
2190.66 227.069 3779
2196.74 226.84 3772
2207.49 227.093 3773
1772.91 172.036 2818
1780.85 172.196 2818
1786.26 172.111 2814
1792.32 172.089 2811
1797.74 172.006 2807
3054.38 195.306 2619
3052.34 194.721 2606
3063.18 194.959 2604
3074.07 195.198 2602
3082.65 195.291 2598
3086.5 195.083 2590
-1401.4 79.0552 847
-1402.32 79.2638 852
-1398.32 79.1942 854
-1389.45 78.849 853
-1393.64 79.2442 860
-1388.1 79.0871 861
-1381.01 78.8404 861
-1378.77 78.8704 864
-1378.13 78.9923 868
-1369.59 78.661 867
-1376.84 79.2374 876
-1393.4 80.3526 891
-1404.97 81.848 921
-1401.82 82.0001 928
-1399.5 82.0329 931
-1382.24 81.1879 924
-1371.08 80.6992 921
-1357.06 80.0394 916
-1344.64 79.4715 912
-1335.27 79.0815 910
-1334.73 79.2143 914
-1326.92 78.9155 913
-1323.51 78.8777 915
-1317.25 78.6689 915
-1312.46 78.548 916
-1304.86 78.2576 915
-1304.42 78.3961 919
-1299.73 78.2795 920
-1296.47 78.2492 922
-1293.24 78.2199 924
-1281.67 77.685 920
-1279.89 77.7433 923
-1278.13 77.802 926
-1279.11 78.029 931
-1280.08 78.2554 936
-1279.66 78.3983 940
-1273.81 78.2085 940
-1272.05 78.2694 943
-1264.92 77.9995 942
-1257.85 77.7317 941
-1253.48 77.6307 942
-1253.12 77.7777 946
-1247.47 77.5965 946
-1248.43 77.8262 951
-1242.83 77.6472 951
-1242.47 77.7957 955
-1240.8 77.8628 958
-1239.14 77.9305 961
-1236.19 77.9175 963
-1233.26 77.9054 965
-1227.8 77.7328 965
-1224.9 77.7226 967
-1218.23 77.4723 966
-1212.86 77.3039 966
-1213.78 77.5361 971
-1210.94 77.5289 973
-1210.59 77.6814 977
-1211.46 77.9132 982
-1208.63 77.9073 984
-1203.36 77.7439 984
-1205.43 78.055 990
-1201.4 77.9719 991
-1196.19 77.8113 991
-1191.01 77.652 991
-1190.64 77.8067 995
-1185.5 77.6492 995
-1181.58 77.5709 996
-1180.03 77.6489 999
-1178.49 77.7272 1002
-1178.11 77.8831 1006
-1173.06 77.7301 1006
-1170.36 77.7324 1008
-1165.35 77.5813 1008
-1161.53 77.5082 1009
-1157.72 77.4359 1010
-1153.93 77.3645 1011
-1152.43 77.4467 1014
-1150.93 77.529 1017
-1149.42 77.6115 1020
-1147.91 77.6944 1023
-1145.29 77.7017 1025
-1143.78 77.7853 1028
-1141.16 77.7933 1030
-1137.44 77.7267 1031
-1132.65 77.5854 1031
-1128.97 77.5203 1032
-1124.21 77.3811 1032
-1119.49 77.2427 1032
-1116.94 77.2548 1034
-1115.48 77.342 1037
-1114.01 77.4295 1040
-1110.41 77.3683 1041
-1111.07 77.6047 1046
-1109.6 77.6927 1049
-1107.06 77.7069 1051
-3254.73 252.832 3633
-3251.1 253.244 3644
-3241.23 253.17 3648
-3231.38 253.097 3652
-3218.91 252.818 3653
-3200.35 252.057 3647
-3178.39 251.024 3637
-3165.25 250.684 3637
-3162.56 251.172 3649
-3154.66 251.247 3655
-3155.36 252.011 3671
-3163.71 253.39 3696
-3160.84 253.877 3708
-3148.6 253.612 3709
-3146.55 254.168 3722
-3136.88 254.11 3726
-3123.04 253.713 3725
-3109.26 253.318 3724
-3099.68 253.265 3728
-3062.05 252.37 3729
-3059.95 252.932 3742
-459.84 271.08 4803
-450.503 271.215 4806
-440.974 271.237 4807
-431.266 271.148 4806
114.176 271.928 4832
123.668 271.712 4828
133.229 271.666 4827
142.668 271.395 4822
1474.85 178.78 2938
1477.68 178.36 2929
1482 178.123 2923
1485.8 177.826 2916
2185.55 236.611 3805
2186.5 235.813 3789
2193.76 235.7 3784
2199.85 235.462 3777
2210.61 235.724 3778
1772.44 178.276 2817
1780.38 178.441 2817
1787.7 178.544 2816
1795.03 178.648 2815
1801.75 178.689 2813
1811.05 178.985 2815
3058.27 202.699 2622
3057.42 202.171 2610
3064.75 202.185 2605
3074.47 202.356 2602
3084.24 202.529 2599
3089.28 202.393 2592
-1402.39 81.7366 843
-1401.67 81.8558 847
-1396 81.6865 848
-1393.66 81.7115 851
-1384.82 81.3549 850
-1387.41 81.6695 856
-1381.9 81.508 857
-1374.84 81.2538 857
-1372.63 81.2859 860
-1367.26 81.1306 861
-1358.77 80.7895 860
-1359.79 81.0136 865
-1368.62 81.7045 875
-1375.79 82.2991 884
-1381.33 82.7986 892
-1386.81 83.2964 900
-1387.63 83.5154 905
-1383.85 83.4584 907
-1380.1 83.4027 909
-1380.91 83.6228 914
-1374.18 83.3869 914
-1367.51 83.1531 914
-1357.91 82.7403 912
-1346.92 82.2403 909
-1338.97 81.9246 908
-1332.55 81.7016 908
-1329.1 81.6601 910
-1319.87 81.2621 908
-1313.6 81.0456 908
-1307.38 80.8312 908
-1299.78 80.53 907
-1296.51 80.497 909
-1297.52 80.7299 914
-1294.28 80.6985 916
-1296.68 81.0195 922
-1292.04 80.9015 923
-1280.47 80.3477 919
-1280.09 80.4954 923
-1278.32 80.5562 926
-1273.81 80.444 927
-1274.8 80.6795 932
-1275.77 80.9145 937
-1269.94 80.7186 937
-1269.54 80.868 941
-1263.77 80.6747 941
-1262.04 80.7397 944
-1253.67 80.3787 942
-1251.98 80.4456 945
-1246.34 80.2582 945
-1245.99 80.4114 949
-1240.4 80.2265 949
-1241.35 80.4648 954
-1238.39 80.4503 956
-1238.03 80.6047 960
-1233.8 80.5077 961
-1230.88 80.4955 963
-1226.7 80.4005 964
-1223.81 80.3901 966
-1219.67 80.2971 967
-1215.55 80.2054 968
-1213.95 80.2801 971
-1208.62 80.1077 971
-1205.8 80.1012 973
-1206.7 80.3418 978
-1203.88 80.3364 980
-1201.08 80.3315 982
-1203.16 80.6538 988
-1200.35 80.6497 990
-1195.15 80.4835 990
-1188.77 80.2375 989
-1187.21 80.3171 992
-1182.09 80.1545 992
-1176.99 79.9931 992
-1175.47 80.0747 995
-1176.29 80.3169 1000
-1174.75 80.3986 1003
-1172.05 80.4005 1005
-1171.67 80.5626 1009
-1166.66 80.406 1009
-1161.68 80.2506 1009
-1159.02 80.2552 1011
-1155.22 80.1809 1012
-1151.44 80.1077 1013
-1151.07 80.272 1017
-1148.44 80.2788 1019
-1145.82 80.286 1021
-1143.2 80.2939 1023
-1142.81 80.459 1027
-1140.2 80.4675 1029
-1137.59 80.4765 1031
-1132.79 80.3302 1031
-1129.11 80.263 1032
-1123.27 80.0411 1031
-1119.63 79.9754 1032
-1116 79.9106 1033
-1113.47 79.9238 1035
-1113.08 80.0916 1039
-1108.42 79.9516 1039
-1106.96 80.0429 1042
-1106.56 80.2111 1046
-1106.15 80.3794 1050
-3259.57 262.134 3638
-3253.25 262.344 3646
-3242.48 262.195 3649
-3233.51 262.191 3654
-3221.03 261.902 3655
-3203.33 261.186 3650
-3182.23 260.187 3641
-3169.95 259.907 3642
-3164.64 260.197 3651
-3157.59 260.347 3658
-3157.43 261.065 3673
-3164.05 262.351 3696
-3158.63 262.643 3705
-3148.94 262.581 3709
-3142.66 262.803 3717
-3135.53 262.955 3724
-3122.54 262.615 3724
-3109.59 262.276 3724
-460.068 280.777 4805
-450.632 280.858 4807
-441.192 280.94 4809
-431.479 280.847 4808
114.397 282.063 4841
123.678 281.315 4828
133.184 281.15 4825
142.59 280.811 4819
152.321 281.114 4824
1475.62 185.974 2954
1474.98 185.099 2938
1478.31 184.728 2930
1480.61 184.231 2920
1486.44 184.175 2917
2182.31 244.589 3799
2183.23 243.763 3783
2188.74 243.452 3775
2196.56 243.399 3771
2207.31 243.67 3772
1770.72 184.382 2814
1779.28 184.619 2815
1785.33 184.594 2812
1793.29 184.767 2812
1800 184.809 2810
1808.64 185.05 2811
3059.85 209.952 2623
3062.51 209.645 2614
3068.69 209.58 2608
3078.43 209.758 2605
3089.4 210.019 2603
3094.47 209.878 2596
-1397.67 84.2339 840
-1398.63 84.4581 845
-1391.33 84.184 845
-1393.93 84.5087 851
-1386.71 84.2387 851
-1387.67 84.465 856
-1380.55 84.1995 856
-1376.7 84.1331 858
-1371.29 83.9704 859
-1367.51 83.9075 861
-1359.02 83.5547 860
-1356.9 83.5926 863
-1364.17 84.211 872
-1365.14 84.4416 877
-1366.09 84.6722 882
-1373.19 85.2854 891
-1369.47 85.2281 893
-1365.78 85.1723 895
-1365.16 85.3077 899
-1363.01 85.3488 902
-1357.88 85.2021 903
-1352.78 85.0575 904
-1347.72 84.9146 905
-1338.25 84.4929 903
-1333.29 84.3544 904
-1325.44 84.0317 903
-1327.87 84.3613 909
-1314.27 83.6721 904
-1309.48 83.5414 905
-1303.28 83.3202 905
-1299.99 83.2849 907
-1295.3 83.1591 908
-1296.32 83.4003 913
-1295.9 83.5502 917
-1294.07 83.6093 920
-1288.05 83.3969 920
-1279.28 83.0059 918
-1276.14 82.9783 920
-1274.38 83.0418 923
-1271.26 83.0161 925
-1269.53 83.0809 928
-1270.52 83.3248 933
-1264.71 83.1229 933
-1262.99 83.1896 936
-1258.59 83.0794 937
-1255.55 83.0589 939
-1248.54 82.7747 938
-1246.87 82.8446 941
-1243.89 82.8274 943
-1243.55 82.9862 947
-1239.28 82.8826 948
-1240.23 83.1293 953
-1238.58 83.2016 956
-1236.92 83.2744 959
-1230.14 83.0009 958
-1228.51 83.0751 961
-1224.33 82.9775 962
-1222.72 83.0529 965
-1218.58 82.9571 966
-1216.98 83.0338 969
-1212.88 82.9397 970
-1207.55 82.7615 970
-1205.98 82.8401 973
-1205.64 83.0041 977
-1202.83 82.9985 979
-1201.25 83.0782 982
-1203.33 83.4116 988
-1199.31 83.323 989
-1195.31 83.2353 990
-1190.13 83.0648 990
-1187.38 83.0632 992
-1182.25 82.895 992
-1175.97 82.6447 991
-1173.26 82.6459 993
-1174.1 82.8967 998
-1172.57 82.9815 1001
-1169.88 82.9838 1003
-1170.67 83.2343 1008
-1166.82 83.1549 1009
-1162.99 83.0763 1010
-1159.17 82.9988 1011
-1154.23 82.8401 1011
-1150.46 82.7644 1012
-1148.96 82.8529 1015
-1148.59 83.0231 1019
-1144.85 82.9493 1020
-1142.23 82.9575 1022
-1144.07 83.2903 1028
-1142.56 83.3799 1031
-1137.74 83.2276 1031
-1135.14 83.2374 1033
-1130.35 83.087 1033
-1125.59 82.9375 1033
-1120.86 82.7894 1033
-1118.31 82.8021 1035
-1115.76 82.8154 1037
-1116.44 83.0684 1042
-1111.76 82.923 1042
-1110.29 83.0171 1045
-1108.82 83.1114 1048
-1105.23 83.0477 1049
-3260.84 271.166 3639
-3253.62 271.309 3646
-3243.73 271.229 3650
-3233.88 271.151 3654
-3220.52 270.778 3654
-3206.33 270.333 3653
-3188.71 269.595 3648
-3177.27 269.377 3650
-3168.46 269.383 3655
-3161.4 269.536 3662
-3158.64 270.059 3674
-3161.83 271.095 3693
-3154.71 271.25 3700
-3149.29 271.552 3709
-3144.7 271.928 3719
-3137.57 272.086 3726
-3126.24 271.879 3728
-3121.62 272.257 3738
-468.657 289.737 4794
-460.296 290.484 4807
-450.856 290.568 4809
-441.136 290.471 4808
-431.692 290.556 4810
123.79 291.16 4832
133.388 291.171 4832
142.809 290.82 4826
152.555 291.134 4831
1468.76 191.414 2940
1470.59 190.835 2929
1475.42 190.646 2924
1476.69 190.001 2912
1484.03 190.139 2912
2183.66 253.076 3801
2186.9 252.488 3789
2190.69 251.967 3778
2197.93 251.846 3773
2205.76 251.793 3769
1769.01 190.477 2811
1776.93 190.654 2811
1783.6 190.696 2809
1790.92 190.806 2808
1797.61 190.85 2806
1806.25 191.098 2807
3061.07 217.695 2635
3060.27 217.13 2623
3062.93 216.813 2614
3072.64 216.995 2611
3077.67 216.846 2604
3089.83 217.199 2603
3094.9 217.054 2596
-1400.33 87.0002 837
-1392.96 86.7131 837
-1388.97 86.6358 839
-1385.02 86.5604 841
-1386.01 86.7946 846
-1380.47 86.6195 847
-1379.84 86.7526 851
-1375.98 86.6831 853
-1372.15 86.6151 855
-1366.76 86.4479 856
-1363.01 86.3839 858
-1359.28 86.3213 860
-1357.16 86.3605 863
-1358.17 86.6001 868
-1357.61 86.7401 872
-1353.95 86.6821 874
-1354.95 86.9224 879
-1351.32 86.8665 881
-1347.72 86.8122 883
-1348.7 87.0535 888
-1348.15 87.1968 892
-1343.08 87.048 893
-1339.55 86.9983 895
-1336.04 86.9499 897
-1326.63 86.5163 895
-1327.63 86.7609 900
-1324.2 86.7168 902
-1325.17 86.9617 907
-1317.41 86.6327 906
-1311.15 86.4017 906
-1303.5 86.0779 905
-1297.34 85.8516 905
-1294.09 85.8167 907
-1293.7 85.9717 911
-1290.47 85.9387 913
-1288.66 86.0005 916
-1282.66 85.7822 916
-1273.92 85.379 914
-1270.8 85.3515 916
-1269.07 85.418 919
-1267.35 85.485 922
-1268.37 85.7374 927
-1268 85.8974 931
-1263.56 85.7813 932
-1261.85 85.8503 935
-1257.45 85.7366 936
-1254.42 85.7157 938
-1248.74 85.5133 938
-1248.39 85.6765 942
-1245.41 85.6584 944
-1243.74 85.7317 947
-1238.16 85.5344 947
-1237.82 85.6994 951
-1236.18 85.7743 954
-1234.54 85.8499 957
-1229.04 85.6573 957
-1227.42 85.7341 960
-1224.52 85.7223 962
-1221.64 85.7114 964
-1217.51 85.6126 965
-1215.91 85.6918 968
-1211.81 85.5949 969
-1205.24 85.3228 968
-1204.92 85.4923 972
-1204.58 85.6618 976
-1201.77 85.6562 978
-1200.2 85.7388 981
-1203.5 86.1705 988
-1199.49 86.0788 989
-1196.7 86.0752 991
-1191.51 85.8988 991
-1188.75 85.8968 993
-1182.42 85.6366 992
-1177.32 85.4642 992
-1174.61 85.4652 994
-1177.8 85.8957 1001
-1177.43 86.0683 1005
-1173.54 85.9844 1006
-1173.16 86.1576 1010
-1165.83 85.8197 1008
-1159.7 85.5688 1007
-1154.75 85.4043 1007
-1150.97 85.3258 1008
-1148.34 85.3324 1010
-1147.99 85.5085 1014
-1143.12 85.3478 1014
-1140.51 85.3563 1016
-1137.92 85.3653 1018
-1137.55 85.5424 1022
-1136.07 85.6358 1025
-1134.58 85.7293 1028
-1134.19 85.9065 1032
-1130.5 85.8343 1033
-1124.65 85.597 1032
-1121.01 85.5268 1033
-1118.46 85.5399 1035
-1112.68 85.3062 1034
-1113.37 85.568 1039
-1110.84 85.5826 1041
-1106.19 85.4338 1041
-1105.79 85.6136 1045
-3260.33 280.052 3638
-3252.22 280.122 3644
-3242.34 280.04 3648
-3232.49 279.959 3652
-3220.01 279.651 3653
-3204.95 279.115 3651
-3189.95 278.582 3649
-3178.51 278.357 3651
-3169.7 278.362 3656
-3163.49 278.597 3664
-3162.44 279.288 3678
-3161.34 279.979 3692
-3157.64 280.442 3703
-3152.2 280.754 3712
-3145.91 280.991 3720
-3136.24 280.927 3724
-3125.75 280.789 3727
-3115.29 280.653 3730
-468.989 299.492 4797
-460.526 300.202 4809
-451.268 300.413 4813
-441.264 300.126 4809
-431.638 300.09 4809
123.647 300.402 4826
133.344 300.662 4830
142.762 300.3 4824
152.504 300.623 4829
1464.9 197.199 2932
1469.23 196.936 2926
1476.57 197.078 2926
1478.35 196.479 2915
2183.3 261.368 3800
2188.85 261.036 3792
2194.38 260.705 3784
2203.39 260.787 3782
2213.59 261.008 3782
1766.04 196.42 2806
1773.95 196.602 2806
1780.6 196.645 2804
1787.27 196.689 2802
1794.59 196.804 2801
1803.21 197.061 2802
3061.87 224.396 2624
3065.71 224.155 2616
3074.26 224.257 2612
3079.3 224.104 2605
3087.9 224.21 2601
-1398.95 89.6838 836
-1386.6 89.067 833
-1387.61 89.3083 838
-1386.95 89.4432 842
-1383.02 89.3669 844
-1379.12 89.2922 846
-1378.5 89.4299 850
-1369.8 89.0436 849
-1362.8 88.7657 849
-1359.05 88.6993 851
-1353.74 88.5308 852
-1351.64 88.5715 855
-1351.13 88.7167 859
-1352.18 88.9652 864
-1351.65 89.1109 868
-1348.02 89.0522 870
-1345.95 89.0972 873
-1342.37 89.0413 875
-1338.81 88.9868 877
-1338.32 89.1362 881
-1336.3 89.1852 884
-1332.8 89.1344 886
-1329.32 89.085 888
-1327.35 89.1371 891
-1320.94 88.8906 891
-1321.97 89.1443 896
-1321.5 89.2982 900
-1322.49 89.5514 905
-1317.64 89.4097 906
-1314.28 89.3679 908
-1305.17 88.9351 906
-1303.31 88.995 909
-1298.6 88.8602 910
-1295.34 88.8245 912
-1289.28 88.5958 912
-1288.89 88.7568 916
-1281.48 88.4348 915
-1276.93 88.308 916
-1275.18 88.3752 919
-1273.43 88.443 922
-1268.94 88.3201 923
-1267.21 88.3895 926
-1264.13 88.3644 928
-1258.35 88.1501 928
-1256.66 88.2223 931
-1252.28 88.1058 932
-1251.95 88.2736 936
-1247.61 88.1593 937
-1251.25 88.6094 944
-1248.25 88.5903 946
-1249.2 88.8523 951
-1242.28 88.5546 950
-1243.23 88.817 955
-1236.38 88.5225 954
-1237.31 88.7855 959
-1229.23 88.4013 957
-1228.89 88.573 961
-1224.71 88.4686 962
-1224.36 88.6408 966
-1220.22 88.5382 967
-1221.12 88.8023 972
-1217 88.7015 973
-1209.16 88.3289 971
-1207.58 88.4125 974
-1204.76 88.406 976
-1200.73 88.3097 977
-1197.94 88.3048 979
-1202.47 88.8405 987
-1197.24 88.6563 987
-1195.67 88.7425 990
-1189.28 88.4712 989
-1187.73 88.5588 992
-1180.21 88.2012 990
-1176.31 88.1127 991
-1173.61 88.1137 993
-1176.79 88.5582 1000
-1174.08 88.5597 1002
-1170.21 88.4736 1003
-1168.69 88.5648 1006
-1161.37 88.2168 1004
-1155.26 87.9584 1003
-1151.47 87.8768 1004
-1146.57 87.7088 1004
-1145.1 87.8036 1007
-1144.76 87.9857 1011
-1138.77 87.7334 1010
-1135.06 87.6561 1011
-1133.61 87.7528 1014
-1128.81 87.5905 1014
-1125.14 87.5158 1015
-1124.81 87.7 1019
-1123.36 87.7982 1022
-1120.81 87.811 1024
-1116.09 87.6532 1024
-1115.74 87.8381 1028
-1114.29 87.9378 1031
-1108.53 87.6971 1030
-1109.24 87.9678 1035
-1105.65 87.8987 1036
-3263.42 289.254 3641
-3255.29 289.326 3647
-3246.29 289.32 3652
-3232.88 288.919 3652
-3220.4 288.601 3653
-3205.34 288.048 3651
-3190.34 287.498 3649
-3179.76 287.344 3652
-3174.41 287.664 3661
-3168.19 287.906 3669
-3165.4 288.462 3681
-3164.29 289.174 3695
-3158.86 289.495 3704
-3155.12 289.973 3715
-3147.97 290.14 3722
-3140.82 290.307 3729
-3130.32 290.164 3732
-3122.34 290.256 3738
-478.347 308.916 4794
-469.322 309.262 4800
-460.373 309.672 4807
-450.932 309.762 4809
-441.026 309.53 4806
123.427 309.429 4817
133.245 310.018 4826
142.862 310.094 4827
152.454 310.107 4827
162.215 310.443 4832
1459.21 203.57 2935
1464.04 203.368 2930
1467.86 203.027 2923
1474.19 203.034 2921
1476.47 202.485 2911
2178.53 270.143 3809
2182.95 269.658 3799
2189.65 269.458 3793
2196.35 269.257 3787
2205.95 269.414 3786
2214.4 269.429 3783
1774.76 202.964 2807
1782.06 203.081 2806
1788.1 203.054 2803
1794.14 203.028 2800
1802.12 203.22 2800
1815.94 204.067 2809
3063.12 232.185 2636
3057.65 231.23 2620
3064.99 231.245 2615
3076.21 231.016 2602
3083.61 231.036 2597
3097 231.504 2597
-1394.92 92.0052 829
-1394.24 92.1414 833
-1385.23 91.727 832
-1384.59 91.8661 836
-1383.95 92.0057 840
-1378.39 91.8184 841
-1376.15 91.8513 844
-1375.54 91.9939 848
-1370.09 91.8126 849
-1363.08 91.5258 849
-1364.12 91.7797 854
-1360.37 91.7119 856
-1358.24 91.7526 859
-1356.12 91.7944 862
-1355.58 91.9434 866
-1351.92 91.8811 868
-1349.83 91.926 871
-1347.76 91.9721 874
-1344.17 91.9141 876
-1340.6 91.8575 878
-1341.61 92.1157 883
-1336.56 91.9573 884
-1331.55 91.8012 885
-1329.57 91.8539 888
-1327.6 91.9075 891
-1321.19 91.6534 891
-1323.69 92.0173 897
-1321.75 92.0734 900
-1321.28 92.2324 904
-1317.89 92.188 906
-1314.52 92.1451 908
-1306.85 91.7998 907
-1306.41 91.9621 911
-1301.69 91.8226 912
-1297 91.6848 913
-1290.92 91.4488 913
-1287.71 91.4147 915
-1283.11 91.282 916
-1279.94 91.2505 918
-1278.18 91.3192 921
-1276.42 91.3886 924
-1271.91 91.2612 925
-1268.8 91.2339 927
-1264.35 91.1095 928
-1259.92 90.9866 929
-1254.17 90.7673 929
-1252.5 90.8426 932
-1252.16 91.0156 936
-1249.15 90.9947 938
-1254.11 91.5554 946
-1252.42 91.6316 949
-1252.03 91.8047 953
-1246.41 91.5935 953
-1246.04 91.7674 957
-1240.47 91.5588 957
-1240.1 91.7339 961
-1234.57 91.5278 961
-1236.76 91.894 967
-1231.28 91.6902 967
-1229.63 91.772 970
-1224.2 91.571 970
-1221.32 91.5602 972
-1209.69 90.8922 967
-1203.13 90.6028 966
-1202.81 90.7837 970
-1200.02 90.7776 972
-1198.46 90.8654 975
-1199.35 91.1398 980
-1205.09 91.7849 989
-1198.64 91.5018 988
-1198.27 91.683 992
-1189.47 91.2183 989
-1185.52 91.1245 990
-1175.63 90.5724 986
-1170.55 90.39 986
-1163.15 90.026 984
-1168.73 90.6686 993
-1163.71 90.4891 993
-1158.72 90.311 993
-1156.92 90.5932 1000
-1149.67 90.237 998
-1147.06 90.2441 1000
-1142.17 90.0714 1000
-1139.58 90.0799 1002
-1134.73 89.9096 1002
-1131.04 89.83 1003
-1125.12 89.5727 1002
-1128.18 90.0307 1009
-1127.86 90.2206 1013
-1125.31 90.2324 1015
-1120.55 90.0673 1015
-3264.72 298.311 3642
-3260.17 298.711 3652
-3250.25 298.623 3656
-3237.71 298.291 3657
-3224.33 297.881 3657
-3210.13 297.391 3656
-3191.61 296.499 3650
-3180.15 296.259 3652
-3173.07 296.427 3659
-3167.72 296.757 3668
-3165.79 297.411 3681
-3162.97 297.984 3693
-3157.55 298.316 3702
-3155.51 298.969 3715
-3147.51 299.06 3721
-3140.36 299.233 3728
-3132.38 299.326 3734
-3122.72 299.26 3738
-469.462 318.913 4801
-460.797 319.535 4811
-451.346 319.628 4813
-441.707 319.588 4813
123.514 319.218 4820
133.339 319.825 4829
142.905 319.772 4828
152.531 319.851 4829
162.263 320.13 4833
1459.35 209.881 2935
1465.19 209.816 2932
1468.51 209.394 2924
1473.83 209.257 2920
2171.89 277.642 3797
2177.43 277.288 3789
2184.68 277.153 3784
2193.68 277.24 3782
2205.01 277.621 3784
2215.22 277.857 3784
1774.96 209.258 2807
1779.71 209.08 2802
1785.74 209.052 2799
1791.13 208.95 2795
1799.09 209.148 2795
1807.08 209.346 2795
3060.09 239.121 2633
3065.46 238.425 2615
3077.86 238.28 2603
3082.9 238.118 2596
-1395.23 94.7824 829
-1392.87 94.8088 832
-1388.87 94.7228 834
-1383.24 94.5256 835
-1382.61 94.6699 839
-1377.05 94.477 840
-1374.81 94.5111 843
-1375.83 94.7701 848
-1370.38 94.5831 849
-1363.37 94.2877 849
-1364.41 94.5491 854
-1362.25 94.5894 857
-1361.69 94.741 861
-1361.12 94.893 865
-1360.55 95.0455 869
-1356.87 94.9802 871
-1354.76 95.0255 874
-1349.58 94.855 875
-1344.44 94.6867 876
-1340.87 94.6285 878
-1338.84 94.6794 881
-1333.8 94.5168 882
-1328.8 94.3563 883
-1326.84 94.4112 886
-1326.37 94.5732 890
-1319.97 94.3116 890
-1323.95 94.7924 897
-1322 94.8502 900
-1324.45 95.2239 906
-1321.05 95.1778 908
-1319.11 95.2374 911
-1309.98 94.7766 909
-1310.96 95.0472 914
-1303.36 94.6951 913
-1298.66 94.5529 914
-1291.16 94.2061 913
-1287.94 94.1709 915
-1281.95 93.9316 915
-1281.57 94.1041 919
-1277.02 93.9701 920
-1276.65 94.1438 924
-1270.76 93.9108 924
-1269.03 93.9843 927
-1260.48 93.5526 925
-1254.72 93.3256 925
-1247.64 93.0002 924
-1248.68 93.2797 929
-1243.01 93.0579 929
-1252.03 93.9373 940
-1259.63 94.7139 950
-1260.55 94.9902 955
-1257.51 94.9687 957
-1251.86 94.75 957
-1250.16 94.8296 960
-1240.68 94.3183 957
-1240.31 94.4984 961
-1234.78 94.2864 961
-1236.97 94.6633 967
-1230.21 94.3557 966
-1203.92 93.8015 975
-1198.65 93.6034 975
-1200.77 93.9817 981
-1205.29 94.5503 989
-1193.98 93.8773 984
-1191.21 93.8739 986
-3261.56 306.953 3638
-3257.91 307.451 3649
-3250.67 307.612 3656
-3238.13 307.27 3657
-3223.86 306.764 3656
-3211.42 306.428 3657
-3192.02 305.424 3650
-3177.95 304.926 3649
-3171.74 305.182 3657
-3166.39 305.523 3666
-3162.75 306.031 3677
-3160.8 306.704 3690
-3158.8 307.378 3703
-3156.76 308.051 3716
-3150.45 308.31 3724
-3144.13 308.57 3732
-3136.12 308.666 3738
-3123.11 308.268 3738
-469.406 328.434 4800
-460.647 329.007 4809
-450.918 328.897 4808
133.324 329.374 4828
142.8 329.114 4824
152.324 328.991 4822
161.975 329.142 4824
171.458 328.953 4821
1451.19 215.894 2933
1458.01 215.974 2932
1465.34 216.128 2932
1469.67 215.84 2926
1475.5 215.774 2923
2173.84 286.221 3800
2181.11 286.082 3795
2187.23 285.793 3788
2198.55 286.185 3790
2209.92 286.577 3792
1775.79 215.631 2808
1781.18 215.525 2804
1786.58 215.419 2800
1792.61 215.391 2797
1799.94 215.518 2796
1807.93 215.722 2796
3058.24 246.138 2631
3063.59 245.42 2613
3079.53 245.553 2604
3084.57 245.386 2597
-1383.14 96.8847 826
-1382.52 97.0324 830
-1380.24 97.0639 833
-1381.27 97.3289 838
-1375.72 97.1309 839
-1375.12 97.2816 843
-1374.52 97.433 847
-1369.07 97.2409 848
-1358.85 96.7083 846
-1363.11 97.2062 853
-1359.36 97.1345 855
-1361.98 97.5176 861
-1362.98 97.7868 866
-1360.84 97.8309 869
-1358.71 97.8758 872
-1355.04 97.8101 874
-1346.77 97.4111 873
-1343.18 97.3498 875
-1339.62 97.2901 877
-1334.56 97.1214 878
-1328.03 96.8447 878
-1324.56 96.7907 880
-1321.11 96.7383 882
-1322.17 97.0156 887
-1317.26 96.8562 888
-1322.73 97.4604 896
-1323.73 97.737 901
-1323.25 97.9051 905
-1324.22 98.1813 910
-1322.27 98.2421 913
-1313.12 97.7672 911
-1312.65 97.9379 915
-1305.04 97.5753 914
-1293.22 96.8961 910
-1282.92 96.3277 907
-1283.97 96.6108 912
-1277.98 96.3653 912
-1280.41 96.7542 918
-1281.42 97.0372 923
-1281.03 97.215 927
-1273.75 96.8698 926
-1269.26 96.736 927
-1257.99 96.0835 923
-1250.88 95.7465 922
-1263.84 97.7945 953
-1267.38 98.283 960
-1262.99 98.1574 961
-1249.46 97.3197 955
-1250.38 97.6054 960
-1231.82 96.3691 950
-3262 315.927 3638
-3258.34 316.439 3649
-3251.11 316.605 3656
-3239.44 316.34 3658
-3226.06 315.904 3658
-3211.84 315.385 3657
-3191.56 314.267 3649
-3176.63 313.669 3647
-3170.43 313.932 3655
-3166.81 314.454 3666
-3162.31 314.891 3676
-3163.78 315.927 3693
-3165.18 316.962 3710
-3159.72 317.312 3719
-3151.7 317.408 3725
-3147.9 317.931 3736
-3138.21 317.859 3740
-3122.68 317.194 3737
-477.878 337.225 4788
-468.766 337.531 4793
-459.924 338.051 4801
-450.585 338.219 4804
133.475 339.342 4833
142.843 338.794 4825
152.338 338.597 4822
161.99 338.752 4824
171.226 338.067 4814
1447.39 221.595 2925
1457.17 222.131 2930
1465.5 222.441 2932
1468.82 221.993 2924
2177.52 295.048 3806
2184.23 294.828 3800
2188.63 294.298 3790
2198.22 294.468 3789
2208.41 294.717 3789
1783.29 222.059 2807
1788.7 221.951 2803
1794.1 221.842 2799
1800.79 221.894 2797
1805.55 221.708 2792
3050.59 252.666 2624
3055.58 252.488 2617
3057.05 252.021 2607
3077.66 252.544 2602
2909.86 209.631 1865
2893.2 208.008 1845
2890.55 207.396 1834
2889.88 206.512 1815
-1384.51 99.9183 831
-1380.56 99.8304 833
-1381.59 100.103 838
-1377.68 100.018 840
-1375.43 100.054 843
-1378.07 100.446 849
-1370.99 100.13 849
-1360.76 99.5817 847
-1363.41 99.9761 853
-1359.67 99.902 855
-1359.12 100.063 859
-1361.71 100.457 865
-1359.57 100.502 868
-1359.01 100.664 872
-1358.44 100.827 876
-1350.15 100.416 875
-1345 100.237 876
-1342.96 100.29 879
-1336.36 100.001 879
-1323.77 99.2627 875
-1318.81 99.0949 876
-1319.89 99.3805 881
-1317.97 99.4409 884
-1311.6 99.1658 884
-1318.58 99.9001 893
-1312.25 99.6275 893
-1313.28 99.9141 898
-1314.29 100.2 903
-1315.29 100.486 908
-1303.29 99.7781 904
-1305.29 100.353 914
-1293.48 99.6546 910
-1283.17 99.0699 907
-1289.03 100.159 924
-1293.71 100.953 936
-3257.9 325.342 3648
-3251.55 325.602 3656
-3239 325.24 3657
-3227.38 324.97 3659
-3212.28 324.348 3657
-3192 323.196 3649
-3175.31 322.404 3645
-3168.25 322.587 3652
-3162.92 322.948 3661
-3158.43 323.398 3671
-3162.49 324.728 3691
-3161.34 325.528 3705
-3159.29 326.24 3718
-3154.66 326.69 3728
-3152.54 327.401 3741
-3145.34 327.589 3748
-3136.47 327.603 3753
-485.596 345.465 4769
-477.425 346.433 4783
-468.028 346.531 4785
-459.106 346.993 4792
-449.972 347.311 4797
133.405 348.756 4830
142.738 348.12 4821
152.289 348.062 4820
161.973 348.294 4823
171.385 347.949 4818
1441.25 227.882 2927
1446.56 227.731 2923
1454.35 227.97 2924
1461.66 228.132 2924
1464.46 227.593 2915
2180.05 303.745 3810
2186.2 303.439 3803
2191.19 302.974 3794
2197.31 302.67 3787
2207.5 302.925 3787
1787.31 228.854 2813
1792.74 228.742 2809
1798.16 228.632 2805
1804.22 228.604 2802
1808.35 228.331 2796
3052.26 259.951 2625
3057.25 259.768 2618
3061.08 259.487 2610
3068.43 259.506 2605
3074.63 259.427 2599
2899.57 214.794 1858
2887.57 213.471 1841
2886.46 212.957 1831
2882.56 211.812 1810
2882.96 211.415 1801
-1379.65 102.914 841
-1374.13 102.706 842
-1373.53 102.866 846
-1369.11 102.947 852
-1370.12 103.229 857
-1366.34 103.152 859
-1362.59 103.076 861
-1365.17 103.48 867
-1358.31 103.169 867
-1357.75 103.336 871
-1355.64 103.384 874
-1350.45 103.199 875
-3256.57 334.152 3646
-3252.01 334.602 3656
-3240.34 334.322 3658
-3226.95 333.862 3658
-3212.73 333.313 3657
-3192.45 332.13 3649
-3175.76 331.316 3645
-3166.09 331.232 3649
-3160.76 331.603 3658
-3158.01 332.246 3670
-3161.21 333.522 3689
-3163.48 334.706 3707
-3160.58 335.348 3719
-3158.48 336.079 3732
-3154.66 336.631 3743
-3147.45 336.823 3750
-3134.39 336.388 3750
-486.561 355.672 4778
-477.772 356.219 4786
-467.781 355.873 4782
-459.535 356.869 4796
142.782 357.804 4822
152.4 357.893 4823
161.955 357.834 4822
171.473 357.702 4820
180.871 357.349 4815
1438.46 233.695 2921
1444.25 233.619 2918
1448.54 233.304 2912
1458.32 233.871 2917
1461.11 233.317 2908
2178.59 311.889 3807
2184.16 311.492 3799
2187.4 310.769 3787
2192.35 310.291 3778
2202.51 310.553 3778
1789.44 235.426 2816
1793.59 235.145 2810
1800.94 235.283 2809
1806.38 235.17 2805
1809.87 234.807 2798
1819.84 235.283 2801
3057.77 266.955 2618
3056.91 266.258 2606
3060.71 265.97 2598
3066.87 265.888 2592
2902.77 221.392 1869
2892.42 220.154 1853
2877.24 218.554 1834
2879.24 218.262 1826
2876.48 217.613 1815
2872.08 216.842 1803
2875.63 216.673 1796
2885.63 216.991 1793
-3257.05 343.145 3646
-3249.81 343.325 3653
-3237.27 342.943 3654
-3223 342.377 3653
-3207.92 341.72 3651
-3192.9 341.068 3649
-3177.08 340.325 3646
-3166.54 340.145 3649
-3161.21 340.525 3658
-3155.88 340.907 3667
-3159.09 342.218 3686
-3163.08 343.619 3706
-3160.17 344.278 3718
-3158.92 345.122 3732
-3156.78 345.873 3745
-3147.89 345.885 3750
-3134.83 345.439 3750
-496.514 365.509 4781
-487.018 365.535 4782
-477.921 365.867 4787
-468.22 365.742 4786
-458.911 365.923 4789
142.766 367.341 4821
152.257 367.128 4818
162.039 367.602 4824
171.49 367.314 4820
180.889 366.951 4815
1432.83 240.056 2924
1437.64 239.813 2919
1442.93 239.653 2915
1447.22 239.329 2909
1454.49 239.5 2909
1457.76 239.013 2901
2178.96 321.523 3825
2182.29 320.78 3813
2188.45 320.457 3806
2189.98 319.462 3791
2193.19 318.718 3779
1793.47 242.273 2822
1793.82 241.469 2810
1801.81 241.696 2810
1807.89 241.667 2807
1813.33 241.552 2803
1822.02 241.87 2804
3053.63 273.728 2614
3052.75 273.011 2602
3060.07 273.03 2597
2898.78 227.001 1866
2891.53 225.973 1852
2879.48 224.575 1835
2881.49 224.276 1827
2875.57 223.364 1814
2871.16 222.572 1802
2871.51 222.151 1793
2878.28 222.227 1788
-3248.52 352.133 3651
-3237.75 351.934 3654
-3224.36 351.449 3654
-3209.27 350.775 3652
-3192.5 349.913 3648
-3178.42 349.342 3647
-3165.27 348.87 3647
-3162.54 349.548 3659
-3156.34 349.844 3667
-3162.12 351.475 3689
-3166.1 352.912 3709
-3162.33 353.493 3720
-3160.23 354.264 3733
-3156.4 354.844 3744
