ply
format ascii 1.0
element vertex 2306
property float x
property float y
property float z
end_header
167.034 925.395 2258
171.713 925.083 2257
176.39 924.774 2256
181.305 925.698 2258
186.229 926.625 2260
190.995 926.734 2260
195.677 926.436 2259
200.266 925.731 2257
204.941 925.438 2256
209.519 924.738 2254
214.187 924.451 2253
218.463 922.525 2248
223.117 922.243 2247
227.668 921.553 2245
232.315 921.277 2244
237.066 921.413 2244
241.712 921.142 2243
246.685 922.105 2245
251.781 923.483 2248
256.892 924.864 2251
261.553 924.604 2250
266.804 926.401 2254
271.833 927.38 2256
276.505 927.129 2255
280.927 926.058 2252
285.591 925.812 2251
289.867 924.335 2247
294.915 925.329 2249
300.108 926.737 2252
305.046 927.325 2253
310.54 929.563 2258
315.64 930.569 2260
319.901 929.108 2256
324.291 928.061 2253
329.109 928.252 2253
333.635 927.622 2251
338.605 928.231 2252
343.583 928.843 2253
348.26 928.633 2252
352.621 927.602 2249
357.132 926.985 2247
361.959 927.196 2247
367.28 928.648 2250
372.617 930.104 2253
377.635 930.737 2254
382.491 930.96 2254
386.664 929.534 2250
390.996 928.523 2247
395.848 928.755 2247
400.703 928.989 2247
405.563 929.227 2247
410.425 929.467 2247
415.477 930.124 2248
419.602 928.716 2244
423.524 926.894 2239
428.193 926.732 2238
432.669 926.158 2236
436.749 924.758 2232
441.409 924.603 2231
446.468 925.28 2232
450.93 924.717 2230
454.978 923.326 2226
430.233 829.997 1998
433.964 829.007 1995
438.784 830.098 1997
442.507 829.113 1994
447.566 830.625 1997
62.1141 919.732 2235
66.3826 914.008 2221
77.478 833.098 2024
80.8775 824.5 2003
85.5066 828.665 2013
94.6593 834.945 2028
117.611 914.187 2220
122.827 918.375 2230
127.629 919.272 2232
132.322 919.348 2232
137.016 919.426 2232
141.965 921.155 2236
147.194 924.536 2244
152.256 926.683 2249
156.921 926.361 2248
161.799 927.279 2250
166.465 926.962 2249
171.052 926.236 2247
175.788 926.338 2247
180.526 926.442 2247
185.431 927.373 2249
190.092 927.071 2248
194.924 927.595 2249
199.229 925.648 2244
203.787 924.941 2242
208.153 923.411 2238
212.98 923.947 2239
217.229 922.009 2234
222.055 922.55 2235
226.786 922.682 2235
231.519 922.816 2235
236.254 922.953 2235
240.991 923.093 2235
245.73 923.235 2235
251.144 925.859 2241
256.243 927.248 2244
260.659 926.159 2241
265.894 927.967 2245
270.907 928.951 2247
275.195 927.458 2243
279.593 926.38 2240
284.362 926.545 2240
289.133 926.714 2240
293.907 926.885 2240
298.951 927.887 2242
304.141 929.306 2245
309.346 930.728 2248
313.869 930.083 2246
318.386 929.441 2244
322.609 927.973 2240
327.549 928.578 2241
331.606 926.701 2236
336.849 928.141 2239
341.954 929.17 2241
346.453 928.544 2239
350.946 927.92 2237
355.752 928.129 2237
360.4 927.925 2236
365.7 929.385 2239
370.851 930.433 2241
376.181 931.899 2244
381.019 932.123 2244
385.172 930.688 2240
389.486 929.671 2237
394.143 929.487 2236
398.442 928.475 2233
403.093 928.296 2232
407.744 928.121 2231
412.579 928.364 2231
417.043 927.778 2229
421.882 928.027 2229
426.15 927.03 2226
431.183 927.701 2227
435.441 926.709 2224
440.087 926.552 2223
444.532 925.982 2221
449.377 926.248 2221
452.999 924.015 2215
453.706 915.94 2195
425.254 832.816 1994
430.489 834.742 1998
435.311 835.837 2000
439.925 836.516 2001
444.326 836.781 2001
449.403 838.303 2004
61.8446 920.402 2224
66.212 916.301 2214
77.7148 839.898 2029
80.8846 828.768 2002
85.1315 829.231 2003
89.4727 830.524 2006
94.5747 838.445 2025
111.486 906.888 2190
117.309 916.48 2213
122.513 920.691 2223
127.36 922.007 2226
131.984 921.669 2225
136.727 922.162 2226
141.603 923.487 2229
146.624 925.643 2234
151.464 926.56 2236
156.314 927.479 2238
161.318 929.23 2242
165.822 928.082 2239
170.466 927.767 2238
175.187 927.868 2238
179.909 927.973 2238
184.385 926.836 2235
189.273 927.775 2237
193.998 927.887 2237
198.458 926.758 2234
203.088 926.462 2233
207.531 925.338 2230
212.343 925.876 2231
216.773 924.758 2228
221.589 925.302 2229
226.005 924.188 2226
230.825 924.738 2227
235.335 924.044 2225
240.161 924.6 2226
245.104 925.573 2228
250.618 928.628 2235
255.708 930.024 2238
259.998 928.514 2234
264.984 929.5 2236
269.86 930.073 2237
274.129 928.571 2233
278.634 927.902 2231
283.64 928.9 2233
288.141 928.237 2231
293.161 929.241 2233
298.193 930.248 2235
303.1 930.842 2236
308.29 932.272 2239
313.355 933.289 2241
317.438 931.393 2236
321.935 930.749 2234
326.572 930.525 2233
330.763 929.052 2229
335.392 928.833 2228
340.477 929.867 2230
344.955 929.237 2228
349.427 928.609 2226
354.53 929.652 2228
359.484 930.281 2229
365.099 932.584 2234
369.911 932.802 2234
374.895 933.441 2235
379.376 932.83 2233
383.336 930.968 2228
387.452 929.526 2224
391.908 928.922 2222
396.358 928.321 2220
401.165 928.559 2220
405.792 928.381 2219
410.419 928.207 2218
415.607 929.29 2220
420.429 929.54 2220
424.871 928.955 2218
429.697 929.211 2218
433.938 928.212 2215
438.171 927.216 2212
442.595 926.641 2210
446.609 925.23 2206
449.586 921.723 2197
449.427 911.923 2173
424.869 836.298 1991
429.885 837.815 1994
436.225 841.858 2003
441.069 842.962 2005
445.481 843.229 2005
451.693 846.865 2013
61.8253 924.776 2222
76.2513 876.24 2105
78.0672 847.979 2037
81.579 840.117 2018
85.5644 837.668 2012
90.0164 839.802 2017
95.3313 849.433 2040
111.297 909.936 2185
116.9 917.916 2204
122.199 922.984 2216
127.092 924.724 2220
131.705 924.384 2219
136.439 924.88 2220
141.305 926.212 2223
145.988 926.296 2223
150.537 925.551 2221
155.498 927.308 2225
160.477 929.069 2229
164.808 927.081 2224
169.576 927.596 2225
174.35 928.115 2226
179.05 928.219 2226
183.668 927.91 2225
188.538 928.854 2227
193.158 928.549 2226
197.419 926.579 2221
201.934 925.863 2219
206.443 925.149 2217
211.611 927.36 2222
216.219 927.069 2221
221.123 928.033 2223
225.631 927.331 2221
230.339 927.466 2221
234.945 927.186 2220
239.439 926.491 2218
244.699 928.723 2223
249.982 930.96 2228
254.83 931.527 2229
258.987 929.59 2224
263.836 930.163 2225
268.571 930.321 2225
272.94 929.227 2222
277.174 927.718 2218
282.41 929.558 2222
286.632 928.053 2218
291.759 929.481 2221
297.035 931.33 2225
302.06 932.345 2227
307.095 933.364 2229
312.422 935.224 2233
316.774 934.154 2230
321.117 933.088 2227
325.742 932.861 2226
329.772 930.961 2221
334.236 930.321 2219
338.999 930.522 2219
343.611 930.306 2218
348.221 930.093 2217
353.149 930.722 2218
358.408 932.194 2221
363.682 933.669 2224
368.31 933.468 2223
372.937 933.27 2222
377.393 932.655 2220
381.5 931.201 2216
385.941 930.591 2214
390.554 930.403 2213
394.987 929.797 2211
400.139 930.877 2213
405.12 931.54 2214
409.739 931.364 2213
414.545 931.611 2213
419.733 932.704 2215
424.551 932.958 2215
428.985 932.372 2213
432.63 930.103 2207
437.443 930.365 2207
441.658 929.365 2204
444.649 925.837 2195
447.195 921.466 2184
448.042 913.718 2165
439.607 887.394 2102
426.62 843.999 1998
430.792 843.836 1997
437.578 848.747 2008
442.876 850.705 2012
448.418 853.089 2017
75.6442 873.643 2087
77.7685 848.99 2028
81.5464 844.013 2016
85.5724 841.97 2011
90.1144 844.953 2018
95.7617 857.57 2048
104.077 891.966 2130
110.904 911.294 2176
116.439 918.9 2194
121.72 923.997 2206
126.594 925.746 2210
131.189 925.404 2209
135.782 925.064 2208
140.626 926.403 2211
145.286 926.488 2211
149.744 925.319 2208
154.751 927.505 2213
159.852 930.113 2219
164.238 928.533 2215
168.99 929.051 2216
173.591 928.734 2215
178.351 929.258 2216
183.033 929.365 2216
187.718 929.475 2216
192.23 928.75 2214
196.914 928.865 2214
201.508 928.565 2213
206.006 927.847 2211
211.166 930.069 2216
215.86 930.197 2216
220.856 931.586 2219
225.155 930.04 2215
229.958 930.595 2216
234.131 928.634 2211
239.258 930.455 2215
243.963 930.599 2215
249.344 933.267 2221
253.952 932.997 2220
257.976 930.628 2214
262.57 930.364 2213
267.282 930.522 2213
271.505 929.001 2209
275.964 928.323 2207
280.798 928.91 2208
285.252 928.238 2206
289.961 928.41 2206
294.941 929.427 2208
300.204 931.289 2212
305.349 932.734 2215
310.509 934.182 2218
315.116 933.948 2217
319.866 934.138 2217
324.18 933.067 2214
328.335 931.577 2210
332.778 930.932 2208
337.521 931.133 2208
341.802 930.072 2205
346.701 930.701 2206
351.768 931.755 2208
357.008 933.234 2211
361.937 933.873 2212
366.376 933.247 2210
371.145 933.469 2210
375.748 933.272 2209
379.661 931.386 2204
384.254 931.194 2203
389.023 931.427 2203
393.616 931.241 2202
398.209 931.057 2201
402.984 931.299 2201
407.763 931.544 2201
412.92 932.638 2203
417.901 933.313 2204
423.273 934.838 2207
427.887 934.672 2206
431.715 932.814 2201
436.319 932.653 2200
439.72 929.95 2193
443.499 928.098 2188
446.237 924.125 2178
447.071 916.334 2159
440.292 893.256 2104
431.162 865.921 2039
428.374 851.741 2005
431.485 849.454 1999
437.626 853.118 2007
441.603 852.536 2005
447.133 854.933 2010
452.69 857.334 2015
75.8706 880.651 2092
77.8531 854.176 2029
81.5545 848.33 2015
85.6661 847.116 2012
90.5255 853.064 2026
95.8656 862.804 2049
103.846 894.446 2124
110.562 913.04 2168
116.03 920.268 2185
121.351 925.814 2198
126.268 927.994 2203
131.03 928.914 2205
135.432 927.308 2201
140.2 928.233 2203
144.781 927.897 2202
149.291 927.142 2200
154.144 928.497 2203
159.226 931.12 2209
163.52 929.109 2204
168.404 930.473 2207
172.597 928.045 2201
177.33 928.572 2202
181.903 928.257 2201
186.898 930.055 2205
191.65 930.59 2206
196.319 930.706 2206
201.081 931.247 2207
205.663 930.947 2206
210.433 931.494 2207
215.21 932.044 2208
220.291 933.862 2212
224.476 931.885 2207
229.368 932.865 2209
233.53 930.893 2204
238.645 932.724 2208
243.117 932.024 2206
248.37 934.284 2211
252.731 933.167 2208
256.848 931.206 2203
261.302 930.517 2201
265.992 930.675 2201
270.807 931.259 2202
275.004 929.732 2198
280.203 931.591 2202
284.258 929.645 2197
289.215 930.664 2199
293.515 929.57 2196
298.891 931.865 2201
303.739 932.47 2202
309.014 934.349 2206
313.599 934.113 2205
318.471 934.727 2206
322.763 933.649 2203
327.195 932.998 2201
331.47 931.925 2198
336.042 931.702 2197
340.456 931.059 2195
345.338 931.69 2196
349.908 931.476 2195
355.284 933.387 2199
360.027 933.604 2199
364.772 933.823 2199
369.017 932.771 2196
374.274 934.271 2199
378.167 932.374 2194
382.741 932.18 2193
387.491 932.414 2193
392.245 932.651 2193
396.64 932.039 2191
401.763 933.133 2193
406.527 933.379 2193
410.92 932.776 2191
415.498 932.602 2190
421.035 934.56 2194
425.623 934.391 2193
429.818 933.374 2190
434.401 933.211 2189
437.579 930.066 2181
441.741 929.054 2178
444.048 924.206 2166
445.064 916.796 2148
440.351 897.857 2103
434.176 876.347 2052
432.697 864.652 2024
434.124 858.936 2010
438.547 859.203 2010
442.534 858.618 2008
448.075 861.03 2013
452.967 862.161 2015
61.8245 938.742 2218
65.7103 927.776 2192
77.8997 858.952 2029
81.6036 853.073 2015
85.7603 852.277 2013
90.2221 854.447 2018
95.7828 866.359 2046
103.908 899.448 2124
110.322 915.605 2162
115.728 922.449 2178
120.871 926.755 2188
125.656 928.1 2191
130.395 929.025 2193
134.898 928.257 2191
139.584 928.764 2192
144.078 928.001 2190
148.701 928.09 2190
153.466 929.028 2192
158.457 931.241 2197
162.95 930.49 2195
167.666 931.013 2196
172.073 929.844 2193
176.711 929.949 2193
181.351 930.057 2193
186.331 931.864 2197
190.983 931.977 2197
195.814 932.943 2199
200.382 932.638 2198
205.041 932.76 2198
209.988 934.158 2201
214.364 933.013 2198
219.427 934.841 2202
223.593 932.852 2197
228.363 933.414 2198
232.61 931.854 2194
237.599 933.27 2197
242.051 932.565 2195
247.284 934.837 2200
251.853 934.563 2199
255.953 932.592 2194
260.153 931.047 2190
264.943 931.631 2191
269.863 932.644 2193
274.043 931.107 2189
279.354 933.401 2194
283.782 932.721 2192
288.337 932.469 2191
292.756 931.794 2189
297.984 933.675 2193
302.68 933.857 2193
307.94 935.746 2197
312.223 934.656 2194
317.074 935.273 2195
321.493 934.615 2193
325.906 933.959 2191
330.313 933.306 2189
334.715 932.655 2187
339.266 932.433 2186
344.288 933.494 2188
348.844 933.279 2187
354.045 934.773 2190
358.607 934.563 2189
363.334 934.783 2189
367.392 933.297 2185
372.628 934.804 2188
377.018 934.179 2186
381.053 932.7 2182
385.783 932.935 2182
390.336 932.744 2181
394.708 932.128 2179
399.808 933.227 2181
404.549 933.473 2181
409.295 933.722 2181
414.233 934.402 2182
419.372 935.514 2184
423.747 934.915 2182
427.528 933.034 2177
432.483 933.726 2178
436.442 932.278 2174
439.17 928.258 2164
441.448 923.38 2152
442.849 916.785 2136
438.107 897.739 2091
432.96 878.255 2045
432.963 869.501 2024
434.391 863.753 2010
438.162 862.732 2007
442.145 862.144 2005
446.791 862.848 2006
450.997 862.695 2005
61.7503 942.268 2214
75.6714 887.103 2084
77.7164 861.182 2023
81.5718 856.973 2013
85.7266 856.173 2011
90.0976 857.503 2014
95.5595 868.63 2040
103.286 898.497 2110
109.878 916.447 2152
115.213 922.903 2167
120.226 926.381 2175
124.928 927.308 2177
129.76 929.088 2181
134.117 927.464 2177
138.84 928.399 2179
143.441 928.484 2179
148.044 928.573 2179
152.648 928.664 2179
157.614 930.889 2184
162.157 930.559 2183
166.85 931.085 2184
171.156 929.482 2180
175.85 930.014 2181
180.385 929.695 2180
185.341 931.512 2184
190.141 932.479 2186
195.041 933.876 2189
199.682 933.995 2189
204.138 933.264 2187
208.778 933.389 2187
213.42 933.517 2187
218.364 934.929 2190
223.016 935.063 2190
227.67 935.2 2190
232.008 934.058 2187
236.877 935.055 2189
241.094 933.491 2185
246.084 934.921 2188
250.515 934.218 2186
254.824 933.089 2183
259.122 931.963 2180
264.015 932.977 2182
269.042 934.422 2185
273.332 933.304 2182
278.504 935.183 2186
283.048 934.927 2185
287.59 934.672 2184
291.997 933.993 2182
296.806 934.601 2183
301.345 934.355 2182
306.164 934.969 2183
310.562 934.3 2181
315.099 934.063 2180
319.635 933.828 2179
324.318 934.025 2179
329.005 934.224 2179
333.847 934.856 2180
338.386 934.633 2179
343.397 935.699 2181
347.78 935.053 2179
352.644 935.696 2180
357.187 935.484 2179
362.227 936.564 2181
366.439 935.499 2178
371.833 937.443 2182
375.35 934.665 2175
380.238 935.327 2176
384.957 935.562 2176
389.322 934.94 2174
393.5 933.89 2171
398.952 935.854 2175
403.313 935.241 2173
407.48 934.199 2170
412.398 934.882 2171
417.324 935.568 2172
421.676 934.965 2170
426.023 934.365 2168
430.563 934.198 2167
435.305 934.465 2167
438.629 931.716 2160
440.899 926.811 2148
442.292 920.18 2132
437.539 901.027 2087
432.804 882.297 2043
433.231 874.358 2024
435.092 869.443 2012
438.433 867.553 2007
442.639 867.393 2006
446.4 866.372 2003
77.4943 862.965 2016
81.3779 859.161 2007
85.7786 860.924 2011
90.0181 860.978 2011
95.2425 870.025 2032
102.663 897.488 2096
109.076 914.253 2135
114.432 921.173 2151
119.635 926.383 2163
124.315 927.314 2165
129.184 929.533 2170
133.52 927.9 2166
138.35 929.696 2170
143.002 930.21 2171
147.862 932.013 2175
152.32 931.247 2173
157.204 933.056 2177
161.735 932.724 2176
166.416 933.253 2177
170.318 929.497 2168
175.07 930.46 2170
179.749 930.997 2171
184.604 932.394 2174
189.387 933.366 2176
194.536 936.057 2182
199.165 936.177 2182
203.609 935.442 2180
208.046 934.709 2178
212.671 934.838 2178
217.1 934.11 2176
221.725 934.244 2176
226.456 934.811 2177
230.876 934.091 2175
235.722 935.093 2177
240.137 934.379 2175
244.883 934.957 2176
249.407 934.679 2175
254.045 934.833 2175
258.329 933.7 2172
263.329 935.15 2175
268.097 935.742 2176
272.747 935.908 2176
277.4 936.077 2176
282.055 936.248 2176
286.58 935.992 2175
290.837 934.878 2172
295.491 935.058 2172
300.01 934.81 2171
304.667 934.995 2171
309.043 934.323 2169
313.702 934.513 2169
318.51 935.139 2170
323.028 934.905 2169
328.149 936.399 2172
332.673 936.171 2171
337.04 935.514 2169
342.032 936.586 2171
346.237 935.504 2168
350.918 935.718 2168
356.094 937.231 2171
360.955 937.884 2172
365.149 936.812 2169
370.868 939.631 2175
374.891 938.133 2171
378.899 936.637 2167
383.247 936.008 2165
387.949 936.247 2165
391.929 934.758 2161
396.813 935.434 2162
401.519 935.682 2162
406.041 935.499 2161
410.182 934.453 2158
414.506 933.842 2156
419.604 934.967 2158
423.73 933.929 2155
428.842 935.06 2157
433.765 935.762 2158
437.884 934.732 2155
439.94 929.365 2142
440.906 921.828 2124
437.391 905.173 2085
432.437 885.904 2040
433.714 879.659 2025
436.011 875.586 2015
439.362 873.686 2010
443.356 873.092 2008
447.792 873.37 2008
77.5034 867.306 2015
81.5088 864.772 2009
85.9592 866.975 2014
90.3417 868.321 2017
95.629 877.849 2039
102.627 901.59 2094
108.785 916.294 2128
114.023 922.391 2142
119.265 928.06 2155
123.989 929.427 2158
128.786 931.227 2162
133.293 930.877 2161
137.988 931.822 2163
142.496 931.477 2162
147.272 932.858 2165
151.642 931.657 2162
156.361 932.613 2164
160.793 931.848 2162
165.447 932.379 2163
169.557 929.895 2157
174.127 930.001 2157
178.948 931.403 2160
183.613 931.945 2161
188.632 934.216 2166
193.406 935.196 2168
198.373 937.042 2172
202.799 936.302 2170
207.217 935.565 2168
211.434 933.967 2164
216.234 934.962 2166
220.943 935.527 2167
225.138 933.938 2163
230.061 935.373 2166
234.675 935.516 2166
238.959 934.365 2163
243.57 934.514 2163
248.642 936.394 2167
253.266 936.548 2167
257.654 935.841 2165
262.4 936.433 2166
267.399 937.894 2169
271.661 936.763 2166
276.422 937.364 2167
281.19 937.969 2168
285.834 938.143 2168
289.81 936.157 2163
294.311 935.904 2162
298.95 936.088 2162
303.591 936.274 2162
307.807 935.163 2159
312.882 936.654 2162
317.238 935.983 2160
322.184 937.047 2162
326.84 937.248 2162
331.651 937.885 2163
336.004 937.225 2161
340.982 938.302 2163
344.693 935.911 2157
349.029 935.258 2155
354.017 936.344 2157
359.016 937.434 2159
363.017 935.921 2155
368.539 938.32 2160
373.049 938.116 2159
377.384 937.479 2157
381.891 937.281 2156
386.576 937.52 2156
390.539 936.022 2152
395.223 936.267 2152
399.91 936.515 2152
404.225 935.894 2150
408.535 935.277 2148
412.648 934.227 2145
417.919 935.792 2148
422.223 935.183 2146
427.12 935.884 2147
431.823 936.153 2147
435.717 934.679 2143
437.749 929.282 2130
437.858 919.956 2108
435.355 905.389 2074
431.646 888.633 2035
432.485 881.479 2018
435.418 878.693 2011
439.855 878.968 2011
444.518 879.683 2012
449.635 881.275 2015
67.8236 912.628 2109
71.6201 904.449 2090
74.9734 891.944 2061
77.6279 872.949 2017
81.7618 871.7 2014
85.8839 870.453 2011
90.2181 871.373 2013
95.8284 883.984 2042
102.69 906.556 2094
108.801 920.909 2127
114.093 927.472 2142
119.006 930.575 2149
123.663 931.516 2151
128.388 932.893 2154
132.819 932.107 2152
137.562 933.49 2155
141.858 931.843 2151
146.614 933.232 2154
151.173 933.324 2154
155.806 933.852 2155
160.296 933.516 2154
165.013 934.483 2156
169.189 932.419 2151
173.831 932.958 2152
178.312 932.633 2151
183.13 934.045 2154
187.702 934.16 2154
192.722 936.446 2159
197.581 937.868 2162
201.895 936.69 2159
206.293 935.948 2157
210.782 935.643 2156
215.269 935.34 2155
219.855 935.475 2155
224.339 935.178 2154
228.822 934.884 2153
233.41 935.027 2153
238.001 935.173 2153
242.481 934.887 2152
247.647 937.211 2157
252.37 937.8 2158
256.861 937.523 2157
261.592 938.119 2158
266.207 938.282 2158
270.699 938.014 2157
274.934 936.878 2154
279.547 937.05 2154
284.296 937.66 2155
288.514 936.532 2152
292.723 935.407 2149
297.751 936.897 2152
302.374 937.083 2152
306.857 936.837 2151
311.628 937.465 2152
316.406 938.096 2153
321.042 938.294 2153
325.832 938.931 2154
330.477 939.135 2154
334.968 938.907 2153
339.774 939.553 2154
343.788 938.021 2150
347.95 936.928 2147
352.431 936.71 2146
357.077 936.931 2146
361.22 935.845 2143
366.72 938.256 2148
371.207 938.05 2147
375.694 937.847 2146
380.534 938.52 2147
385.023 938.323 2146
389.511 938.128 2145
394.367 938.811 2146
398.858 938.621 2145
403.349 938.435 2144
407.839 938.252 2143
411.751 936.757 2139
416.818 937.893 2141
421.11 937.28 2139
425.795 937.546 2139
430.081 936.938 2137
434.16 935.895 2134
436.378 930.905 2122
436.47 921.527 2100
434.998 909.074 2071
432.13 893.981 2036
432.328 885.471 2016
435.475 883.109 2010
440.57 884.704 2013
444.577 884.104 2011
450.142 886.585 2016
67.5758 913.721 2100
71.2531 904.191 2078
74.5832 891.618 2049
77.5219 875.999 2013
81.7312 875.613 2012
85.8514 874.359 2009
90.3186 876.591 2014
95.8407 888.4 2041
102.312 907.614 2085
108.356 921.61 2117
113.577 927.774 2131
118.636 932.2 2141
123.279 933.145 2143
128.11 935.401 2148
132.531 934.611 2146
137.2 935.565 2148
141.483 933.909 2144
146.091 934.434 2145
150.564 934.09 2144
155.179 934.621 2145
159.651 934.283 2144
164.273 934.819 2145
168.507 933.179 2141
173.13 933.721 2142
177.676 933.83 2142
182.308 934.377 2143
187.033 935.364 2145
191.859 936.79 2148
196.515 937.347 2149
200.897 936.598 2147
205.464 936.724 2147
209.836 935.98 2145
214.403 936.112 2145
219.073 936.684 2146
223.541 936.385 2145
228.219 936.962 2146
232.796 937.105 2146
237.485 937.689 2147
242.067 937.838 2147
247.227 940.174 2152
251.825 940.33 2152
256.186 939.614 2150
260.785 939.775 2150
265.138 939.065 2148
269.486 938.357 2146
273.828 937.652 2144
278.553 938.262 2145
283.152 938.437 2145
287.621 938.177 2144
291.679 936.608 2140
296.691 938.105 2143
301.297 938.292 2143
306.049 938.92 2144
310.663 939.112 2144
315.28 939.308 2144
319.899 939.507 2144
324.825 940.585 2146
329.608 941.229 2147
333.776 940.121 2144
338.566 940.771 2145
342.403 938.791 2140
346.546 937.691 2137
351.172 937.91 2137
356.135 939.009 2139
360.603 938.796 2138
365.754 940.341 2141
370.748 941.451 2143
374.878 940.367 2140
379.531 940.605 2140
384.188 940.845 2140
388.848 941.089 2140
392.96 940.015 2137
398.179 941.585 2140
401.908 939.636 2135
406.001 938.571 2132
410.084 937.508 2129
414.938 938.209 2130
419.208 937.591 2128
423.872 937.857 2128
428.339 937.686 2127
432.602 937.076 2125
435.008 932.5 2114
434.666 922.187 2090
433.802 910.988 2064
431.978 898.019 2034
431.743 888.579 2012
434.884 886.203 2006
439.754 887.365 2008
443.974 887.204 2007
449.757 890.14 2013
67.2961 914.342 2090
70.7828 902.573 2063
74.1923 891.243 2037
77.4159 879.039 2009
81.6601 879.089 2009
85.7766 877.828 2006
90.4195 881.822 2015
95.9003 893.259 2041
102.277 911.703 2083
107.962 922.711 2108
113.221 929.346 2123
118.322 934.234 2134
123.01 935.622 2137
127.593 936.138 2138
131.996 935.343 2136
136.647 936.303 2138
140.911 934.637 2134
145.501 935.165 2135
150.096 935.695 2136
154.407 934.476 2133
158.931 934.574 2133
163.685 935.989 2136
167.903 934.34 2132
172.51 934.884 2133
177.205 935.87 2135
181.74 935.982 2135
186.365 936.535 2136
191.263 938.407 2140
195.631 937.651 2138
199.899 936.459 2135
204.347 936.146 2134
208.891 936.276 2134
213.336 935.969 2133
217.882 936.104 2133
222.429 936.242 2133
227.191 937.26 2135
231.53 936.526 2133
236.526 938.429 2137
241.203 939.017 2138
246.462 941.806 2144
251.045 941.961 2144
255.274 940.802 2141
259.491 939.645 2138
263.699 938.49 2135
268.021 937.778 2133
272.082 936.189 2129
277.168 938.12 2133
281.613 937.856 2132
286.459 938.914 2134
290.77 938.215 2132
295.769 939.72 2135
300.079 939.027 2133
304.955 940.098 2135
309.698 940.732 2136
314.153 940.487 2135
318.458 939.805 2133
323.06 940.007 2133
327.511 939.772 2132
331.65 938.657 2129
336.726 940.19 2132
340.857 939.081 2129
345.304 938.856 2128
349.914 939.076 2128
354.693 939.74 2129
359.142 939.524 2128
364.275 941.077 2131
369.077 941.75 2132
373.011 940.218 2128
377.819 940.897 2129
381.736 939.37 2125
386.548 940.056 2126
391 939.86 2125
396.569 942.321 2130
400.656 941.247 2127
405.115 941.06 2126
409.187 939.99 2123
413.836 940.251 2123
417.897 939.187 2120
422.347 939.011 2119
426.394 937.951 2116
430.432 936.894 2113
432.607 931.847 2101
432.861 922.807 2080
432.816 913.322 2058
431.191 900.725 2029
432.018 893.453 2012
436.245 893.286 2011
441.349 894.898 2014
444.478 892.515 2008
451.609 898.136 2020
66.8548 912.726 2075
70.312 900.893 2048
73.9108 892.14 2028
77.3101 882.069 2005
81.5483 882.119 2005
85.5734 879.972 2000
90.521 887.067 2016
96.1484 899.886 2045
102.44 917.551 2085
107.928 926.858 2106
113.025 932.209 2118
117.897 935.363 2125
122.454 935.878 2126
126.896 935.516 2125
131.645 937.359 2129
136.029 936.562 2127
140.339 935.328 2124
144.842 935.417 2124
149.487 936.39 2126
153.707 934.724 2122
158.285 935.262 2123
162.868 935.804 2124
167.22 935.026 2122
171.728 935.132 2122
176.486 936.564 2125
181.088 937.117 2126
185.521 936.791 2125
190.041 936.909 2125
194.655 937.471 2126
198.806 935.831 2122
203.134 935.075 2120
208.042 936.969 2124
212.469 936.66 2123
217.201 937.677 2125
221.525 936.933 2123
226.376 938.398 2126
230.589 937.218 2123
235.567 939.13 2127
240 938.839 2126
245.121 941.2 2131
249.797 941.797 2132
254.36 941.956 2132
258.318 939.909 2127
262.629 939.189 2125
267.058 938.914 2124
271.23 937.758 2121
276.302 939.7 2125
280.865 939.876 2125
285.699 940.939 2127
289.998 940.236 2125
294.708 940.864 2126
299.424 941.494 2127
304.147 942.128 2128
308.443 941.436 2126
312.732 940.747 2124
316.867 939.617 2121
321.294 939.376 2120
325.874 939.582 2120
329.989 938.46 2117
335.042 940.001 2120
339.311 939.328 2118
344.061 939.988 2119
348.325 939.321 2117
353.251 940.431 2119
357.681 940.213 2118
362.796 941.774 2121
367.406 942.006 2121
371.494 940.909 2118
375.928 940.703 2117
380.001 939.61 2114
384.61 939.854 2114
389.223 940.1 2114
394.772 942.574 2119
399.214 942.383 2118
403.847 942.639 2118
408.098 942.008 2116
412.539 941.825 2115
416.782 941.199 2113
421.22 941.022 2112
425.053 939.51 2108
428.464 937.109 2102
430.617 932.033 2090
431.055 923.389 2070
430.778 913.404 2047
429.34 901.184 2019
430.79 895.21 2005
435.005 895.042 2004
440.316 897.11 2008
443.655 895.159 2003
450.109 899.47 2012
66.4778 911.932 2062
70.047 901.803 2039
73.8481 895.657 2025
77.3202 886.416 2004
81.3555 884.254 1999
85.3277 881.653 1993
90.1737 887.901 2007
95.7854 900.79 2036
102.013 918.108 2075
107.483 927.466 2096
112.562 932.846 2108
117.305 935.131 2113
121.954 936.534 2116
126.379 936.17 2115
131.048 937.579 2118
135.474 937.221 2117
139.766 935.979 2114
144.182 935.626 2113
148.948 937.49 2117
153.152 935.814 2113
157.564 935.469 2112
162.05 935.57 2112
166.537 935.674 2112
171.188 936.666 2114
175.683 936.776 2114
180.264 937.332 2115
184.764 937.447 2115
189.445 938.452 2117
193.678 937.243 2114
198.088 936.924 2113
202.495 936.607 2112
206.997 936.736 2112
211.502 936.869 2112
216.11 937.448 2113
220.725 938.03 2114
225.453 939.059 2116
229.865 938.759 2115
234.608 939.794 2117
239.022 939.5 2116
244.01 941.429 2120
248.431 941.141 2119
252.969 941.3 2119
257.024 939.685 2115
261.311 938.961 2113
265.718 938.684 2112
270.25 938.854 2112
275.046 939.916 2114
279.588 940.092 2114
284.401 941.161 2116
288.953 941.344 2116
293.369 941.083 2115
297.924 941.272 2115
302.767 942.353 2117
306.896 941.212 2114
311.163 940.518 2112
315.573 940.272 2111
319.527 938.693 2107
323.774 938.007 2105
328.483 938.66 2106
333.832 941.101 2111
338.084 940.423 2109
342.981 941.533 2111
347.559 941.753 2111
352.475 942.869 2113
356.558 941.757 2110
361.658 943.326 2113
365.734 942.219 2110
369.976 941.562 2108
374.213 940.906 2106
378.445 940.254 2104
382.854 940.051 2103
387.63 940.745 2104
392.974 942.784 2108
397.584 943.038 2108
402.198 943.294 2108
406.816 943.554 2108
411.047 942.922 2106
415.273 942.292 2104
419.495 941.665 2102
423.51 940.592 2099
427.108 938.625 2094
429.451 933.969 2083
430.291 926.175 2065
430.423 917.032 2044
429.404 905.643 2018
431.713 901.432 2008
435.503 900.365 2005
440.819 902.445 2009
443.942 900.036 2003
66.1328 911.53 2050
69.8163 903.125 2031
73.6392 897.389 2018
77.2921 890.322 2002
81.4479 889.483 2000
85.6387 889.091 1999
90.6355 896.709 2016
96.0344 907.443 2040
101.831 920.851 2070
107.14 928.925 2088
112.046 932.999 2097
116.879 936.186 2104
121.397 936.707 2105
125.801 936.34 2104
130.45 937.757 2107
134.92 937.841 2107
139.325 937.483 2106
143.591 936.237 2103
148.479 939.001 2109
152.523 936.425 2103
156.842 935.633 2101
161.308 935.734 2101
165.775 935.838 2101
170.324 936.39 2102
174.963 937.391 2104
179.611 938.395 2106
184.27 939.401 2108
188.581 938.629 2106
192.793 937.413 2103
197.275 937.537 2103
201.664 937.218 2102
206.05 936.902 2101
210.333 936.142 2099
215.122 937.616 2102
219.612 937.754 2102
224.423 939.234 2105
228.924 939.379 2105
233.648 940.419 2107
237.818 939.23 2104
242.668 940.723 2107
247.181 940.879 2107
251.219 939.251 2103
255.485 938.52 2101
259.868 938.237 2100
264.376 938.405 2100
269.014 939.022 2101
274.049 940.984 2105
278.84 942.055 2107
283.642 943.129 2109
288.318 943.759 2110
292.723 943.497 2109
296.845 942.344 2106
301.673 943.43 2108
305.93 942.729 2106
310.035 941.584 2103
314.279 940.888 2101
318.517 940.195 2099
322.75 939.505 2097
327.289 939.714 2097
332.305 941.27 2100
336.536 940.588 2098
341.574 942.151 2101
346.629 943.718 2104
351.366 944.39 2105
355.603 943.72 2103
360.691 945.297 2106
364.755 944.184 2103
368.633 942.624 2099
372.676 941.515 2096
376.708 940.409 2093
381.278 940.654 2093
385.483 940.002 2091
390.429 941.152 2093
394.631 940.505 2091
399.402 941.212 2092
403.988 941.471 2092
408.969 942.634 2094
413.961 943.801 2096
418.368 943.62 2095
422.37 942.541 2092
425.751 940.112 2086
427.665 934.528 2073
428.275 926.24 2054
427.752 915.693 2030
427.552 906.045 2008
430.487 903.165 2001
434.916 903.446 2001
440.666 906.44 2007
444.23 904.921 2003
69.4826 903.076 2020
73.5768 900.886 2015
81.7848 897.408 2007
85.8646 895.673 2003
90.873 903.332 2020
96.1428 912.783 2041
101.699 924.027 2066
106.849 930.802 2081
111.743 934.898 2090
116.397 936.76 2094
121.013 938.178 2097
125.283 936.914 2094
129.851 937.891 2096
134.237 937.528 2095
138.686 937.615 2095
143.067 937.257 2094
147.728 938.693 2097
151.967 937.446 2094
156.419 937.544 2094
160.796 937.198 2093
165.17 936.855 2092
169.703 937.409 2093
174.325 938.415 2095
178.958 939.424 2097
183.338 939.092 2096
187.805 939.21 2096
192.182 938.884 2095
196.65 939.008 2095
200.833 937.791 2092
205.396 938.369 2093
209.866 938.502 2093
214.338 938.638 2093
218.602 937.88 2091
223.18 938.47 2092
227.438 937.717 2090
232.022 938.313 2091
236.16 937.117 2088
240.979 938.616 2091
245.696 939.67 2093
250.304 940.278 2094
254.553 939.542 2092
259.292 940.605 2094
263.412 939.426 2091
267.905 939.596 2091
273.183 942.467 2097
277.695 942.644 2097
282.208 942.824 2097
287.272 944.805 2101
291.661 944.542 2100
295.766 943.382 2097
300.434 944.024 2098
304.819 943.768 2097
308.759 942.166 2093
312.834 941.016 2090
316.748 939.417 2086
320.801 938.272 2083
325.625 939.381 2085
330.461 940.495 2087
335.148 941.16 2088
339.842 941.829 2089
345.039 943.854 2093
349.254 943.176 2091
353.802 943.404 2091
358.696 944.537 2093
362.734 943.417 2090
366.762 942.298 2087
371.137 942.086 2086
375.151 940.973 2083
379.52 940.766 2082
384.256 941.465 2083
388.815 941.716 2083
393.376 941.97 2083
398.133 942.68 2084
402.511 942.487 2083
407.279 943.203 2084
412.451 944.828 2087
416.242 943.286 2083
420.422 942.653 2081
423.986 940.663 2076
426.086 935.502 2064
427.094 928.074 2047
427.398 919.284 2027
427.405 910.037 2006
430.767 908.049 2001
435.417 908.786 2002
440.295 909.98 2004
443.854 908.453 2000
69.4926 907.478 2019
73.6239 905.726 2015
77.4295 900.38 2003
81.7556 901.33 2005
86.0485 901.834 2006
90.9763 908.635 2021
96.2514 918.136 2042
101.518 926.743 2061
106.609 933.105 2075
111.333 935.874 2081
115.916 937.296 2084
120.571 939.171 2088
124.824 937.9 2085
129.066 936.632 2082
133.682 938.066 2085
138.112 938.154 2085
142.544 938.244 2085
147.118 939.237 2087
151.339 937.983 2084
155.623 937.181 2082
160.054 937.283 2082
164.407 936.937 2081
168.919 937.494 2082
173.521 938.505 2084
178.219 939.969 2087
182.493 939.184 2085
186.849 938.852 2084
191.479 939.875 2086
195.931 940 2086
200.193 939.226 2084
204.645 939.357 2084
209.198 939.941 2085
213.553 939.626 2084
217.696 938.412 2081
222.042 938.103 2080
226.713 939.15 2082
230.95 938.395 2080
235.067 937.192 2077
239.981 939.15 2081
244.327 938.855 2080
248.671 938.563 2079
253.013 938.273 2078
258.096 940.696 2083
262.195 939.51 2080
267.181 941.487 2084
272.056 943.017 2087
276.681 943.646 2088
281.448 944.731 2090
286.226 945.819 2092
290.182 944.196 2088
294.264 943.029 2085
299.052 944.126 2087
303.27 943.416 2085
307.335 942.257 2082
311.689 942.005 2081
316.041 941.756 2080
320.238 941.056 2078
324.898 941.719 2079
329.407 941.931 2079
334.08 942.6 2080
338.76 943.272 2081
343.448 943.947 2082
347.308 942.358 2078
351.83 942.585 2078
356.528 943.269 2079
360.886 943.049 2078
365.066 942.378 2076
369.598 942.617 2076
373.953 942.405 2075
378.855 943.56 2077
382.661 941.991 2073
386.826 941.333 2071
390.987 940.678 2069
395.716 941.39 2070
400.26 941.65 2070
405.199 942.823 2072
410.15 944 2074
414.514 943.815 2073
418.878 943.633 2072
422.832 942.542 2069
425.744 939.175 2061
427.373 933.074 2047
428.522 926.061 2031
429.39 918.59 2014
432.127 915.224 2006
435.92 914.141 2003
440.803 915.342 2005
69.6752 914.144 2023
73.6348 910.123 2014
77.5568 906.104 2005
81.9716 907.964 2009
86.2756 908.47 2010
90.9447 912.595 2019
96.219 922.148 2040
101.436 930.349 2058
106.369 935.389 2069
111.083 938.172 2075
115.768 940.506 2080
120.128 940.13 2079
124.426 939.305 2077
128.715 938.482 2075
133.062 938.114 2074
137.472 938.202 2074
141.678 936.934 2071
146.366 938.837 2075
150.782 938.933 2075
155.125 938.58 2074
159.541 938.681 2074
164.117 939.691 2076
168.298 938.441 2073
172.967 939.909 2076
177.565 940.928 2078
181.997 941.045 2078
186.342 940.711 2077
190.868 941.286 2078
195.306 941.411 2078
199.553 940.633 2076
203.892 940.31 2075
208.329 940.444 2075
212.563 939.674 2073
216.686 938.453 2070
221.011 938.141 2069
225.552 938.74 2070
229.988 938.887 2070
234.426 939.038 2070
238.867 939.192 2070
243.545 940.256 2072
247.875 939.961 2071
252.202 939.67 2070
257.272 942.105 2075
261.734 942.274 2075
266.199 942.446 2075
270.667 942.62 2075
275.269 943.252 2076
279.474 942.523 2074
284.358 944.071 2077
288.84 944.258 2077
292.902 943.083 2074
297.383 943.275 2074
301.866 943.47 2074
306.057 942.758 2072
310.393 942.505 2071
314.727 942.253 2070
319.059 942.005 2069
323.702 942.67 2070
328.036 942.428 2069
332.53 942.643 2069
336.864 942.407 2068
341.361 942.628 2068
345.527 941.941 2066
350.196 942.625 2067
354.873 943.312 2068
359.557 944.002 2069
363.898 943.783 2068
368.771 944.936 2070
373.116 944.723 2069
377.642 944.969 2069
381.434 943.391 2065
385.398 942.272 2062
389.541 941.613 2060
394.063 941.87 2060
398.394 941.673 2059
403.312 942.852 2061
408.044 943.577 2062
412.585 943.847 2062
416.725 943.205 2060
421.27 943.481 2060
423.958 939.637 2051
426.192 934.877 2040
428.593 930.576 2030
430.74 925.816 2019
432.843 921.057 2008
437.514 921.804 2009
441.534 921.177 2007
445.105 919.634 2003
69.7894 919.929 2025
73.8288 916.796 2018
77.5296 910.03 2003
82.0656 913.263 2010
86.4604 914.681 2013
91.2291 919.737 2024
96.423 928.432 2043
101.403 934.404 2056
106.284 939.017 2066
110.78 939.996 2068
115.397 941.888 2072
119.686 941.055 2070
124.087 941.134 2070
128.24 939.398 2066
132.506 938.573 2064
136.898 938.661 2064
141.222 938.296 2063
145.544 937.935 2062
150.153 939.395 2065
154.552 939.494 2065
158.875 939.141 2064
163.512 940.611 2067
167.757 939.809 2065
172.245 940.375 2066
176.91 941.854 2069
181.327 941.97 2069
185.655 941.635 2068
190.349 943.123 2071
194.586 942.338 2069
198.721 941.099 2066
203.042 940.775 2065
207.259 939.997 2063
211.47 939.222 2061
215.674 938.45 2059
220.086 938.592 2059
224.499 938.737 2059
228.915 938.885 2059
233.446 939.492 2060
238.099 940.558 2062
242.645 941.171 2063
246.838 940.419 2061
251.513 941.494 2063
256.323 943.029 2066
260.264 941.372 2062
264.832 942 2063
269.407 942.632 2064
274.255 944.18 2067
278.713 944.361 2067
283.585 945.915 2070
288.055 946.103 2070
291.821 944.007 2065
296.286 944.2 2065
300.462 943.481 2063
304.927 943.679 2063
309.546 944.338 2064
314.02 944.543 2064
318.342 944.293 2063
322.976 944.961 2064
326.982 943.801 2061
331.14 943.102 2059
335.454 942.863 2058
340.099 943.543 2059
343.913 941.935 2055
348.392 942.163 2055
352.702 941.935 2054
357.881 944.004 2058
362.024 943.323 2056
367.053 944.94 2059
371.376 944.725 2058
376.065 945.431 2059
380.021 944.303 2056
384.342 944.096 2055
388.095 942.513 2051
392.791 943.231 2052
396.721 942.113 2049
401.62 943.297 2051
406.334 944.024 2052
410.655 943.835 2051
414.774 943.188 2049
419.502 943.925 2050
422.583 940.98 2043
425.429 937.577 2035
427.82 933.252 2025
430.599 929.85 2017
432.699 925.065 2006
436.279 923.509 2002
440.286 922.878 2000
444.956 923.634 2001
70.0762 928.018 2032
73.9502 922.585 2020
77.5413 914.413 2002
81.9558 916.292 2006
86.3447 917.717 2009
90.8375 920.059 2014
96.1553 930.171 2036
101.123 936.175 2049
105.787 938.984 2055
110.316 940.425 2058
114.748 940.956 2059
119.127 941.032 2059
123.688 942.483 2062
127.827 940.737 2058
132.207 940.822 2058
136.589 940.91 2058
140.766 939.629 2055
145.144 939.722 2055
149.596 940.276 2056
154.053 940.833 2057
158.517 941.392 2058
162.906 941.497 2058
166.972 939.775 2054
171.607 941.259 2057
175.913 940.915 2056
180.217 940.574 2055
184.698 941.151 2056
189.277 942.189 2058
193.584 941.857 2057
197.696 940.611 2054
202.19 941.2 2055
206.389 940.418 2053
210.787 940.555 2053
214.558 937.945 2047
219.374 939.92 2051
223.664 939.607 2050
228.175 940.214 2051
232.692 940.824 2052
237.446 942.354 2055
241.627 941.594 2053
245.921 941.295 2052
250.702 942.835 2055
255.373 943.919 2057
259.803 944.088 2057
263.978 943.342 2055
268.409 943.517 2055
272.842 943.696 2055
277.547 944.795 2057
282.126 945.439 2058
286.156 944.248 2055
290.316 943.519 2053
294.47 942.792 2051
299.056 943.448 2052
303.501 943.646 2052
308.099 944.308 2053
312.552 944.513 2053
317.162 945.181 2054
321.466 944.932 2053
325.61 944.225 2051
329.91 943.981 2050
334.045 943.279 2048
338.174 942.581 2046
342.298 941.884 2044
346.756 942.112 2044
351.389 942.805 2045
356.029 943.5 2046
360.677 944.199 2047
365.512 945.362 2049
369.636 944.683 2047
374.303 945.392 2048
378.608 945.18 2047
383.1 945.433 2047
387.027 944.303 2044
391.711 945.024 2045
396.015 944.824 2044
400.515 945.089 2044
404.226 943.508 2040
409.125 944.704 2042
413.43 944.515 2041
417.938 944.793 2041
422.037 944.147 2039
425.712 942.577 2035
428.74 939.62 2028
431.954 937.127 2022
434.498 933.245 2013
437.442 930.291 2006
441.241 929.194 2003
446.143 930.419 2005
69.5357 925.131 2015
73.5958 922.423 2009
77.2046 914.667 1992
81.7234 917.934 1999
86.1433 919.826 2003
90.8068 924.017 2012
95.9348 932.345 2030
100.943 938.84 2044
105.393 939.827 2046
109.691 939.438 2045
114.321 941.809 2050
118.569 940.966 2048
123.048 941.965 2050
127.476 942.506 2051
131.715 941.673 2049
136.081 941.761 2049
140.242 940.473 2046
144.603 940.566 2046
149.039 941.123 2047
153.405 941.222 2047
157.773 941.325 2047
162.221 941.89 2048
166.35 940.618 2045
170.801 941.189 2046
175.258 941.763 2047
179.546 941.42 2046
183.921 941.539 2046
188.481 942.582 2048
192.581 941.327 2045
196.767 940.535 2043
201.142 940.666 2043
205.519 940.8 2043
210.001 941.397 2044
214.279 941.077 2043
218.769 941.68 2044
223.266 942.287 2045
227.768 942.897 2046
232.051 942.588 2045
236.677 943.664 2047
241.197 944.283 2048
245.364 943.522 2046
249.768 943.685 2046
254.051 943.391 2045
258.079 942.176 2042
262.096 940.964 2039
266.756 942.061 2041
271.295 942.701 2042
276.11 944.267 2045
280.118 943.067 2042
284.812 944.177 2044
288.527 942.057 2039
293.085 942.712 2040
297.358 942.446 2039
302.37 944.494 2043
307.101 945.621 2045
311.845 946.751 2047
316.29 946.96 2047
320.896 947.634 2048
324.873 946.461 2045
329.001 945.752 2043
332.798 944.12 2039
336.91 943.417 2037
341.017 942.716 2035
345.458 942.945 2035
349.731 942.713 2034
354.525 943.875 2036
358.978 944.113 2036
363.97 945.745 2039
368.075 945.062 2037
372.724 945.773 2038
377.01 945.559 2037
381.67 946.277 2038
385.391 944.676 2034
389.864 944.935 2034
394.341 945.198 2034
398.43 944.534 2032
402.513 943.872 2030
407.795 946.004 2034
411.679 944.883 2031
416.374 945.626 2032
420.869 945.907 2032
425.16 945.725 2031
428.181 942.752 2024
431.816 941.178 2020
434.789 938.207 2013
437.518 934.771 2005
441.978 935.067 2005
447.111 936.766 2008
451.812 937.536 2009
65.6234 934.588 2025
69.5815 930.017 2015
73.5343 925.911 2006
77.5272 922.729 1999
81.8182 923.244 2000
85.9849 922.376 1998
90.5056 925.204 2004
95.5251 932.653 2020
100.466 938.72 2033
104.895 939.712 2035
109.227 939.782 2035
113.727 941.242 2038
118.067 941.318 2038
122.409 941.398 2038
126.876 942.404 2040
131.03 941.103 2037
135.838 944.426 2044
139.991 943.131 2041
144.345 943.225 2041
148.7 943.322 2041
153.056 943.422 2041
157.106 941.675 2037
161.773 943.63 2041
165.971 942.814 2039
170.246 942.463 2038
174.603 942.577 2038
179.138 943.619 2040
183.323 942.814 2038
187.869 943.862 2040
191.955 942.6 2037
196.126 941.803 2035
200.388 941.472 2034
204.749 941.606 2034
209.42 943.132 2037
213.791 943.273 2037
218.164 943.416 2037
222.43 943.099 2036
226.582 942.322 2034
230.728 941.547 2032
235.214 942.165 2033
240.061 944.177 2037
244.686 945.265 2039
249.201 945.893 2040
253.225 944.669 2037
257.491 944.375 2036
261.241 942.228 2031
265.625 942.403 2031
270.145 943.046 2032
274.672 943.691 2033
278.931 943.411 2032
283.189 943.134 2031
287.444 942.86 2030
291.986 943.518 2031
296.389 943.714 2031
301.534 946.237 2036
306.104 946.905 2037
310.528 947.11 2037
314.8 946.854 2036
319.542 947.997 2038
323.341 946.35 2034
327.126 944.707 2030
331.223 943.996 2028
335.645 944.219 2028
339.904 943.98 2027
344.67 945.141 2029
349.104 945.373 2029
353.542 945.609 2029
357.63 944.915 2027
362.249 945.622 2028
366.694 945.867 2028
371.143 946.115 2028
375.966 947.299 2030
380.052 946.62 2028
384.701 947.344 2029
388.975 947.137 2028
393.054 946.466 2026
396.735 944.863 2022
401.395 945.599 2023
405.461 944.936 2021
409.522 944.276 2019
414.398 945.49 2021
418.666 945.302 2020
423.142 945.587 2020
426.776 944.001 2016
430.396 942.418 2012
433.786 940.367 2007
437.813 939.726 2005
441.836 939.086 2003
447.19 941.263 2007
452.342 942.974 2010
458.194 946.099 2016
65.6021 938.58 2023
69.7659 936.769 2019
73.8766 934.497 2014
78.0441 933.155 2011
82.2 931.817 2008
86.4727 931.873 2008
90.8818 933.324 2011
95.6359 938.027 2021
100.285 941.342 2028
104.552 940.945 2027
108.816 940.552 2026
113.077 940.162 2025
117.508 941.167 2027
121.949 942.175 2029
126.4 943.187 2031
130.86 944.201 2033
135.529 946.612 2038
139.398 943.452 2031
143.875 944.475 2033
147.997 943.179 2030
152.558 944.673 2033
156.747 943.846 2031
161.088 943.952 2031
165.511 944.526 2032
169.774 944.172 2031
173.947 943.357 2029
178.29 943.474 2029
182.634 943.594 2029
186.98 943.717 2029
191.328 943.844 2029
195.677 943.973 2029
199.831 943.174 2027
204.18 943.309 2027
208.942 945.308 2031
213.408 945.915 2032
217.881 946.524 2033
222.141 946.205 2032
226.287 945.424 2030
230.541 945.11 2029
235.14 946.198 2031
239.513 946.356 2031
244.249 947.916 2034
248.145 946.216 2030
252.15 944.985 2027
256.018 943.29 2023
260.257 942.996 2022
264.887 944.105 2024
269.528 945.217 2026
274.315 946.799 2029
278.293 945.584 2026
282.68 945.772 2026
286.786 945.029 2024
291.606 946.624 2027
296.003 946.821 2027
300.995 948.89 2031
305.557 949.561 2032
310.126 950.235 2033
314.083 949.042 2030
319.128 951.125 2034
322.444 948.067 2027
326.378 946.882 2024
330.792 947.104 2024
335.043 946.859 2023
339.125 946.15 2021
343.712 946.848 2022
347.962 946.613 2021
352.733 947.786 2023
356.635 946.62 2020
360.884 946.393 2019
365.132 946.169 2018
370.294 948.294 2022
374.366 947.607 2020
378.995 948.331 2021
383.443 948.589 2021
388.086 949.319 2022
392.154 948.644 2020
396.61 948.911 2020
399.879 946.362 2014
404.129 946.165 2013
408.784 946.911 2014
413.448 947.66 2015
417.912 947.942 2015
422.59 948.698 2016
425.794 946.163 2010
429.831 945.512 2008
434.08 945.335 2007
437.892 944.218 2004
442.136 944.047 2003
447.941 947.178 2009
453.326 949.371 2013
457.596 949.211 2012
65.6783 943.971 2024
70.0545 944.949 2026
73.9992 940.333 2016
78.3294 940.851 2017
82.3777 938.106 2011
86.7027 938.629 2012
90.8974 937.755 2010
95.5102 941.083 2017
100.005 943.015 2021
104.209 942.15 2019
108.405 941.288 2017
112.761 941.829 2018
117.065 941.906 2018
121.369 941.985 2018
125.799 943.002 2020
130.367 944.955 2024
134.821 945.977 2026
139.079 945.602 2025
143.404 945.696 2025
147.658 945.327 2024
151.909 944.96 2023
156.234 945.063 2023
160.64 945.636 2024
165.051 946.213 2025
169.301 945.857 2024
173.377 944.57 2021
177.882 945.622 2023
182.126 945.276 2022
186.368 944.931 2021
190.89 945.993 2023
195.229 946.123 2023
199.472 945.787 2022
203.813 945.923 2022
208.361 946.996 2024
212.921 948.074 2026
217.383 948.686 2027
221.524 947.897 2025
225.881 948.048 2025
229.9 946.796 2022
234.37 947.42 2023
238.848 948.048 2024
242.971 947.273 2022
247.21 946.969 2021
251.323 946.2 2019
255.43 945.433 2017
259.272 943.731 2013
264.148 945.783 2017
268.777 946.9 2019
273.146 947.082 2019
277.793 948.206 2021
282.172 948.395 2021
286.412 948.117 2020
290.794 948.312 2020
295.325 948.979 2021
300.011 950.119 2023
304.258 949.854 2022
308.961 951 2024
313.211 950.741 2023
318.088 952.364 2026
321.866 950.7 2022
325.791 949.508 2019
329.707 948.319 2016
334.109 948.544 2016
338.515 948.772 2016
343.434 950.415 2019
347.508 949.707 2017
351.751 949.474 2016
356.17 949.714 2016
360.413 949.486 2015
364.655 949.261 2014
369.079 949.51 2014
373.322 949.29 2013
377.751 949.546 2013
382.374 950.276 2014
386.236 949.122 2011
391.255 950.803 2014
395.701 951.071 2014
399.356 949.453 2010
403.801 949.726 2010
408.25 950.003 2010
412.497 949.811 2009
417.367 951.04 2011
421.83 951.326 2011
425.448 949.724 2007
429.696 949.543 2006
434.377 950.311 2007
438.628 950.137 2006
442.659 949.491 2004
447.8 951.218 2007
453.185 953.423 2011
457.454 953.261 2010
65.4628 945.157 2016
69.8248 946.141 2018
73.9756 944.314 2014
78.343 945.303 2016
82.3918 942.543 2010
86.7609 943.538 2012
91.0034 943.129 2011
95.3848 944.13 2013
99.8249 945.602 2016
104.176 946.14 2017
108.316 944.804 2014
112.501 943.94 2012
116.911 944.956 2014
121.089 944.097 2012
125.634 946.058 2016
130.068 947.082 2018
134.446 947.64 2019
138.828 948.202 2020
142.933 946.888 2017
147.392 947.925 2019
151.56 947.086 2017
155.72 946.251 2015
160.192 947.297 2017
164.591 947.876 2018
168.746 947.048 2016
173.15 947.633 2017
177.473 947.751 2017
181.978 948.812 2019
186.124 947.997 2017
190.735 949.534 2020
195.36 951.074 2023
199.409 949.797 2020
203.748 949.933 2020
208.399 951.483 2023
212.538 950.684 2021
216.886 950.829 2021
221.345 951.447 2022
225.81 952.069 2023
229.941 951.282 2021
234.528 952.38 2023
238.891 952.54 2023
242.895 951.29 2020
246.643 949.101 2015
250.621 947.856 2012
254.715 947.085 2010
259.061 947.258 2010
263.671 948.378 2012
268.426 949.973 2015
272.789 950.156 2015
277.293 950.814 2016
281.385 950.06 2014
286.038 951.196 2016
290.559 951.863 2017
294.794 951.59 2016
299.621 953.208 2019
304.314 954.357 2021
308.712 954.566 2021
312.958 954.305 2020
317.832 955.936 2023
321.606 954.263 2019
325.528 953.065 2016
329.439 951.87 2013
333.839 952.096 2013
337.905 951.379 2011
342.816 953.03 2014
346.71 951.845 2011
350.942 951.61 2010
355.528 952.324 2011
359.942 952.568 2011
364.178 952.342 2010
368.597 952.592 2010
372.648 951.897 2008
376.882 951.68 2007
381.495 952.413 2008
385.924 952.676 2008
390.55 953.416 2009
394.988 953.685 2009
399.232 953.483 2008
403.675 953.758 2008
408.123 954.036 2008
412.985 955.269 2010
417.237 955.078 2009
422.119 956.318 2011
425.952 955.182 2008
430.205 955.001 2007
434.675 955.299 2007
439.149 955.6 2007
443.405 955.427 2006
448.332 956.687 2008
453.046 957.475 2009
457.769 958.265 2010
61.3335 951.927 2020
65.572 951.027 2018
69.9412 952.016 2020
74.0255 949.237 2014
78.3958 950.231 2016
82.4884 947.929 2011
86.8194 948.457 2012
90.9742 947.103 2009
95.4966 949.523 2014
99.8429 950.061 2015
104.194 950.601 2016
108.228 948.316 2011
112.465 947.919 2010
116.699 947.525 2009
120.99 947.605 2009
125.345 948.16 2010
129.705 948.718 2011
134.137 949.751 2013
138.578 950.787 2015
142.817 950.411 2014
