ply
format ascii 1.0
element vertex 2155
property float x
property float y
property float z
end_header
3135.91 -534.454 4443
3146.58 -534.538 4439
3159.4 -534.987 4438
3175.83 -536.042 4442
3186.59 -536.135 4438
3198.08 -536.352 4435
3208.88 -536.45 4431
3219.7 -536.551 4427
-2043.13 -390.398 3434
-2036.76 -390.628 3439
-2032.15 -391.2 3447
-2027.52 -391.772 3455
-2020.54 -391.892 3459
-1672.87 -330.682 2931
-1670.19 -331.423 2940
-1668.62 -332.39 2951
-1667.56 -333.469 2963
-1664.23 -334.098 2971
-1661.98 -334.952 2981
-1659.7 -335.805 2991
-1654.07 -335.986 2995
-1650.09 -336.503 3002
-1637.89 -335.341 2994
-1627.92 -334.629 2990
-1619.07 -334.144 2988
-1615.11 -334.666 2995
-1614.35 -335.858 3008
-1619.95 -338.389 3033
-1615.34 -338.798 3039
-1611.77 -339.431 3047
-1606.07 -339.619 3051
-1575.49 -340.13 3067
-1574.9 -341.431 3081
-1563.06 -340.296 3073
-1556.34 -340.271 3075
-1547.11 -339.694 3072
-1535.9 -338.676 3065
-1524.75 -337.662 3058
-1526.55 -339.518 3077
-1527.28 -341.153 3094
-1522.05 -341.465 3099
-1516.81 -341.777 3104
-1480.92 -342.679 3125
-1481.3 -344.312 3142
-1475.04 -344.41 3145
-1466.92 -344.072 3144
-1462.99 -344.72 3152
-1461.82 -346.025 3166
-1455.53 -346.127 3169
-1451.53 -346.775 3177
-1442.05 -346.116 3173
-1299.61 -345.736 3210
-1295.79 -346.509 3219
-1293.55 -347.713 3232
-1285.29 -347.305 3230
66.858 -1054.74 10315
87.4763 -1056.6 10333
391.739 -1047.88 10243
474.558 -1051.18 10273
495.563 -1052.47 10285
857.01 -489.307 4734
865.433 -488.703 4727
874.576 -488.513 4724
881.28 -486.98 4708
889.44 -486.275 4700
899.678 -486.709 4703
1071.13 -505.219 4863
1081.7 -505.578 4865
1089.6 -504.691 4855
1097.46 -503.805 4845
1104.61 -502.607 4832
1111.24 -501.202 4817
1116.43 -499.173 4796
1125.3 -498.81 4791
1137.71 -500.011 4801
1258.48 -509.632 4877
1349.62 -518.045 4945
1360.46 -518.344 4946
1371.58 -518.748 4948
1380.22 -518.211 4941
1388.84 -517.675 4934
1398.57 -517.56 4931
1407.44 -517.131 4925
1417.75 -517.228 4924
1428.06 -517.327 4923
2632.36 -529.395 4709
2639.16 -528.7 4699
2647.63 -528.343 4692
2654.96 -527.762 4683
2663.41 -527.408 4676
2670.71 -526.829 4667
2680.29 -526.703 4662
2689.3 -526.466 4656
2701.21 -526.796 4655
2713.72 -527.242 4655
2725.69 -527.577 4654
2732.97 -527.007 4645
2740.23 -526.439 4636
2747.48 -525.871 4627
2754.11 -525.19 4617
2764.92 -525.307 4614
2774.54 -525.199 4609
2784.16 -525.092 4604
2795.61 -525.329 4602
2798.96 -518.398 4525
2796.67 -516.118 4501
2801.76 -515.213 4489
2811.83 -515.227 4485
2819.4 -514.783 4477
2828.22 -514.571 4471
2838.31 -514.591 4467
2847.14 -514.382 4461
2855.96 -514.174 4455
2864.79 -513.968 4449
2873.62 -513.764 4443
2882.46 -513.562 4437
2891.94 -513.477 4432
2902.74 -513.625 4429
2923.44 -515.518 4441
2944.24 -517.416 4453
2966.48 -519.552 4467
2984.17 -520.88 4474
3011.31 -523.844 4495
3034.58 -526.116 4510
3047.17 -526.527 4509
3055.71 -526.239 4502
3066.3 -526.304 4498
3074.85 -526.019 4491
3082.7 -525.619 4483
3091.25 -525.337 4476
3099.09 -524.94 4468
3107.63 -524.662 4461
3116.86 -524.502 4455
3126.81 -524.463 4450
3136.76 -524.426 4445
3146.72 -524.391 4440
3160.26 -524.949 4440
3178.12 -526.221 4446
3188.17 -526.194 4441
3200.39 -526.525 4439
3209.03 -526.266 4432
3218.39 -526.127 4426
-2038.04 -381.87 3426
-2033.46 -382.431 3434
-2027.1 -382.658 3439
-2022.5 -383.22 3447
-2017.87 -383.783 3455
-1674.88 -324.657 2935
-1673.33 -325.605 2946
-1673.44 -326.884 2960
-1668.42 -327.169 2965
-1663.4 -327.454 2970
-1661.16 -328.291 2980
-1659.43 -329.238 2991
-1651.6 -328.975 2991
-1649.83 -329.922 3002
-1640.91 -329.442 3000
-1632.56 -329.073 2999
-1617.85 -330.057 3015
-1619.69 -331.772 3033
-1616.67 -332.501 3042
-1611.51 -332.794 3047
-1604.24 -332.651 3048
-1592.79 -331.637 3041
-1589.21 -332.26 3049
-1580.93 -331.903 3048
-1577.33 -332.528 3056
-1574.22 -333.261 3065
-1574.65 -334.755 3081
-1562.31 -333.534 3072
-1558.63 -334.16 3080
-1549.38 -333.594 3077
-1536.67 -332.271 3067
-1525.51 -331.276 3060
-1524.33 -332.447 3073
-1521.81 -334.789 3099
-1519.51 -335.743 3110
-1481.38 -339.181 3159
-1467.87 -339.161 3163
-1464.82 -340.01 3173
-1456.23 -339.574 3171
-1451.31 -339.996 3177
-1440.47 -339.029 3170
-1295.77 -338.028 3201
-1291.57 -338.681 3209
-1290.55 -340.179 3225
-1281.12 -339.462 3220
855.263 -478.837 4725
863.85 -478.346 4719
872.605 -477.957 4714
880.411 -477.062 4704
889.885 -477.081 4703
900.511 -477.709 4708
1059.13 -494.389 4855
1070.33 -495.044 4860
1080 -494.988 4858
1088.55 -494.424 4851
1096.4 -493.555 4841
1104.68 -492.89 4833
1111.09 -491.411 4817
1117.67 -490.034 4802
1125.85 -489.372 4794
1260.37 -500.495 4885
1267.6 -499.441 4873
1352.16 -508.951 4955
1363.01 -509.244 4956
1373.33 -509.333 4955
1381.98 -508.806 4948
1390.05 -508.075 4939
1401.77 -508.682 4943
1412.39 -508.88 4943
1422.44 -508.874 4941
1433.65 -509.28 4943
2629.01 -520.495 4726
2631.94 -519.042 4709
2639.86 -518.58 4701
2647.77 -518.121 4693
2656.23 -517.772 4686
2664.12 -517.314 4678
2672.57 -516.968 4671
2682.16 -516.845 4666
2692.33 -516.834 4662
2704.25 -517.158 4661
2716.78 -517.596 4661
2727.58 -517.703 4658
2731.34 -516.477 4643
2739.78 -516.142 4636
2748.22 -515.808 4629
2754.85 -515.141 4619
2766.86 -515.479 4618
2780.1 -516.043 4619
2790.96 -516.163 4616
2801.23 -516.173 4612
2812.72 -516.409 4610
2806.24 -511.501 4558
2799.73 -508.482 4527
2798.68 -506.472 4505
2802.54 -505.359 4491
2810.73 -505.035 4484
2818.92 -504.713 4477
2827.74 -504.504 4471
2837.83 -504.523 4467
2846.66 -504.318 4461
2855.48 -504.115 4455
2864.95 -504.026 4450
2873.79 -503.826 4444
2882.62 -503.628 4438
2892.76 -503.658 4434
2903.56 -503.804 4431
2923.6 -505.545 4442
2947.05 -507.862 4458
2970.62 -510.185 4474
2995.66 -512.743 4492
3018.84 -514.966 4507
3040.12 -516.851 4519
3048.67 -516.568 4512
3057.9 -516.4 4506
3067.13 -516.234 4500
3075.68 -515.956 4493
3083.55 -515.564 4485
3092.78 -515.403 4479
3099.94 -514.898 4470
3107.79 -514.51 4462
3117.72 -514.469 4457
3128.37 -514.546 4453
3138.33 -514.51 4448
3150.42 -514.823 4446
3164.68 -515.487 4447
3181.85 -516.618 4452
3191.92 -516.592 4447
3202.71 -516.685 4443
3210.63 -516.315 4435
3220.73 -516.296 4430
-2035.69 -372.504 3407
-2032.95 -373.382 3418
-2024.26 -373.168 3419
-2019.12 -373.611 3426
-2016.89 -374.598 3438
-2013.46 -375.368 3448
-1679.75 -319.16 2944
-1678.74 -320.196 2956
-1677.69 -321.232 2968
-1672.1 -321.403 2972
-1664.82 -321.25 2973
-1663.68 -322.286 2985
-1660.28 -322.89 2993
-1651.89 -322.524 2992
-1650.12 -323.453 3003
-1641.74 -323.089 3002
-1631.76 -322.405 2998
-1623.98 -322.153 2998
-1618.67 -323.692 3017
-1622.64 -325.801 3039
-1616.95 -325.98 3043
-1613.91 -326.695 3052
-1606.62 -326.555 3053
-1594.11 -325.347 3044
-1586.35 -325.103 3044
-1580.17 -325.181 3047
-1576.57 -325.793 3055
-1572.95 -326.405 3063
-1575.43 -328.296 3083
-1566.13 -327.737 3080
-1562.94 -328.456 3089
-1554.68 -328.113 3088
-1545.45 -327.559 3085
-1533.75 -326.477 3077
-1532.53 -327.623 3090
-1522.7 -329.791 3117
-1484.73 -330.231 3134
-1483.03 -332.841 3163
-1469.05 -332.717 3166
-1454.17 -332.387 3167
-1447.44 -332.381 3169
-1441.16 -332.482 3172
-1291.94 -330.361 3192
-1287.36 -330.898 3199
-1285.56 -332.16 3213
-1277.75 -331.871 3212
854.787 -469.103 4723
863.368 -468.621 4717
871.933 -468.14 4711
881.041 -467.959 4708
890.522 -467.977 4707
901.155 -468.594 4712
1071.06 -485.584 4864
1082.3 -486.228 4869
1090.65 -485.576 4861
1099.42 -485.124 4855
1105.67 -483.573 4838
1113.01 -482.523 4826
1118.92 -480.874 4808
1126.63 -480.025 4798
1352.52 -499.015 4957
1362.28 -498.899 4954
1372.31 -498.885 4952
1379.83 -497.966 4941
1387.6 -497.148 4931
1399.59 -497.844 4936
1409.62 -497.835 4934
1419.07 -497.627 4930
1429.1 -497.621 4928
1438.84 -497.516 4925
2621.92 -508.823 4714
2631.52 -508.693 4709
2639.44 -508.241 4701
2647.91 -507.898 4694
2656.38 -507.557 4687
2665.4 -507.325 4681
2673.29 -506.877 4673
2682.88 -506.757 4668
2692.48 -506.638 4663
2703.82 -506.847 4661
2713.43 -506.732 4656
2723.63 -506.727 4652
2726.79 -505.416 4636
2737.57 -505.523 4633
2746.59 -505.304 4627
2754.41 -504.869 4619
2767.61 -505.419 4620
2783.26 -506.41 4625
2795.95 -506.856 4625
2806.24 -506.867 4621
2818.37 -507.209 4620
2816.43 -505.026 4596
2810.09 -502.071 4565
2801.13 -498.672 4530
2798.23 -496.371 4505
2803.33 -495.502 4493
2811.53 -495.184 4486
2819.72 -494.868 4479
2828.54 -494.664 4473
2838.64 -494.683 4469
2847.46 -494.482 4463
2856.29 -494.283 4457
2865.12 -494.085 4451
2873.96 -493.889 4445
2882.79 -493.694 4439
2892.93 -493.723 4435
2903.08 -493.755 4431
2923.11 -495.462 4442
2947.22 -497.844 4459
2973.45 -500.567 4479
3000.5 -503.411 4500
3021.01 -505.141 4511
3037.59 -506.205 4516
3046.13 -505.927 4509
3056.71 -505.987 4505
3065.93 -505.824 4499
3075.16 -505.663 4493
3084.4 -505.504 4487
3094.33 -505.459 4482
3101.5 -504.965 4473
3108.65 -504.472 4464
3118.59 -504.432 4459
3129.24 -504.508 4455
3138.5 -504.359 4449
3152.01 -504.893 4449
3166.99 -505.657 4451
3179.87 -506.084 4450
3191.37 -506.286 4447
3201.44 -506.263 4442
3210.07 -506.013 4435
3220.89 -506.109 4431
-2032.67 -363.103 3387
-2028.2 -363.643 3395
-2023.12 -364.076 3402
-2018.02 -364.51 3409
-2013.49 -365.051 3417
-2010.71 -365.913 3428
-2008.48 -366.882 3440
-2012.01 -368.916 3462
-1682.34 -313.201 2949
-1679.62 -313.898 2958
-1676.3 -314.488 2966
-1669.02 -314.338 2967
-1664.56 -314.718 2973
-1661.2 -315.31 2981
-1662.24 -316.748 2997
-1655.5 -316.706 2999
-1654.81 -317.826 3012
-1644.23 -317.047 3007
-1635.32 -316.587 3005
-1623.19 -315.498 2997
-1621.36 -316.409 3008
-1617.89 -317.005 3016
-1614.19 -320.158 3053
-1582.53 -319.092 3052
-1571.17 -319.456 3060
-1566.41 -321.178 3081
-1564.73 -322.196 3093
-1557.47 -322.067 3094
-1548.22 -321.524 3091
-1538.51 -320.879 3087
-1531.8 -320.86 3089
-1528.56 -321.567 3098
-1456.25 -326.145 3172
-1290.54 -323.343 3189
-1283.96 -323.363 3191
-1282.18 -324.6 3205
-1273.19 -324.014 3201
854.855 -459.672 4724
863.255 -459.103 4717
871.633 -458.534 4710
880.738 -458.357 4707
890.027 -458.277 4705
900.653 -458.881 4710
1070.7 -475.623 4863
1081.93 -476.254 4868
1091.4 -476.104 4865
1099.28 -475.27 4855
1106.44 -474.142 4842
1114.02 -473.212 4831
1119.7 -471.498 4812
1270.9 -480.927 4887
1352.06 -488.779 4956
1362.92 -489.06 4957
1373.51 -489.244 4957
1380.76 -488.244 4945
1389.1 -487.641 4937
1401.1 -488.323 4942
1411.43 -488.414 4941
1420.32 -488.011 4935
1430.94 -488.204 4935
2616.51 -497.525 4705
2629.44 -498.032 4706
2639.03 -497.907 4701
2648.07 -497.677 4695
2657.1 -497.448 4689
2666.13 -497.221 4683
2673.44 -496.676 4674
2682.46 -496.452 4668
2690.9 -496.123 4661
2701.07 -496.114 4657
2711.26 -496.107 4653
2722.62 -496.315 4651
2728.71 -495.565 4640
2742.46 -496.205 4642
2750.9 -495.884 4635
2758.74 -495.458 4627
2771.37 -495.89 4627
2786.43 -496.755 4631
2799.13 -497.192 4631
2809.43 -497.203 4627
2819.75 -497.216 4623
2820.89 -495.616 4604
2808.41 -491.644 4563
2799.45 -488.315 4528
2797.78 -486.276 4505
2802.88 -485.424 4493
2810.45 -485.005 4485
2819.27 -484.803 4479
2828.09 -484.603 4473
2838.18 -484.621 4469
2847.64 -484.533 4464
2856.47 -484.338 4458
2864.66 -484.035 4451
2874.14 -483.951 4446
2882.97 -483.761 4440
2892.46 -483.681 4435
2903.92 -483.93 4433
2925.27 -485.82 4446
2952.02 -488.592 4467
2982.92 -492.027 4494
3008.67 -494.595 4513
3025.87 -495.743 4519
3037.76 -496.017 4517
3040.9 -494.865 4502
3052.13 -495.033 4499
3061.34 -494.873 4493
3070.55 -494.714 4487
3079.08 -494.447 4480
3093.81 -495.176 4482
3103.06 -495.023 4476
3109.52 -494.43 4466
3119.46 -494.391 4461
3129.42 -494.354 4456
3137.26 -493.986 4448
3149.35 -494.286 4446
3163.61 -494.923 4447
3178.62 -495.675 4449
3189.39 -495.762 4445
3201.62 -496.073 4443
3208.08 -495.494 4433
3221.07 -495.922 4432
-2036.2 -354.936 3378
-2029.35 -355.044 3382
-2023.7 -355.363 3388
-2019.24 -355.893 3396
-2014.75 -356.423 3404
-2008.47 -356.64 3409
-2008.06 -357.903 3424
-2007.58 -359.165 3439
-2014.03 -361.679 3466
-1685.51 -307.327 2955
-1684.47 -308.321 2967
-1681.7 -309.002 2976
-1674.96 -308.958 2978
-1669.9 -309.225 2983
-1666.52 -309.804 2991
-1662.55 -310.28 2998
-1658.56 -310.756 3005
-1655.11 -311.336 3013
-1646.16 -310.883 3011
-1637.79 -310.536 3010
-1629.44 -310.19 3009
-1620.58 -309.743 3007
-1614.96 -309.915 3011
-1616.28 -311.425 3028
-1613.95 -313.517 3053
-1611.4 -314.306 3063
-1603.06 -313.966 3062
-1587.99 -313.6 3063
-1576.58 -313.954 3071
-1570.75 -315.435 3090
-1570.06 -316.635 3104
-1561.27 -316.203 3102
-1553 -315.874 3101
-1542.76 -315.14 3096
-1537.03 -315.323 3100
-1532.77 -315.812 3107
-1528.5 -316.302 3114
-1523.71 -316.691 3120
-1462.79 -319.388 3170
-1453.75 -318.878 3167
-1290.36 -316.638 3189
-1282.17 -316.261 3187
-1279.6 -317.274 3199
-1267.84 -316.007 3188
854.383 -449.956 4722
863.327 -449.684 4718
871.335 -448.937 4709
881.559 -449.334 4712
892.56 -450.115 4719
1059.14 -465.054 4857
1068.58 -464.904 4854
1080.23 -465.713 4861
1089.91 -465.661 4859
1097.32 -464.652 4847
1104.69 -463.644 4835
1113.41 -463.212 4829
1343.75 -479.34 4965
1353.52 -479.227 4962
1365.21 -479.792 4966
1375.54 -479.876 4965
1383.93 -479.284 4957
1393.42 -479.08 4953
1404.32 -479.362 4954
1414.95 -479.548 4954
1422.14 -478.574 4942
1430.75 -478.084 4935
1440.21 -477.887 4931
2615 -486.997 4703
2629.6 -487.804 4707
2640.32 -487.889 4704
2649.36 -487.663 4698
2658.96 -487.544 4693
2668 -487.321 4687
2675.32 -486.788 4678
2683.2 -486.361 4670
2693.37 -486.351 4666
2701.24 -485.925 4658
2713.17 -486.232 4657
2725.13 -486.541 4656
2733 -486.12 4648
2744.99 -486.432 4647
2753.44 -486.119 4640
2761.3 -485.702 4632
2772.74 -485.916 4630
2787.8 -486.762 4634
2799.9 -487.086 4633
2810.82 -487.202 4630
2819.92 -487.004 4624
2820.45 -485.332 4604
2806.74 -481.231 4561
2797.77 -477.97 4526
2797.96 -476.291 4506
2803.68 -475.562 4495
2811.26 -475.152 4487
2820.08 -474.954 4481
2828.91 -474.759 4475
2839 -474.777 4471
2847.83 -474.584 4465
2856.66 -474.393 4459
2865.49 -474.203 4453
2874.97 -474.121 4448
2883.16 -473.828 4441
2892.65 -473.749 4436
2905.42 -474.207 4436
2925.46 -475.845 4447
2954.85 -478.987 4472
2987.74 -482.673 4502
3012.19 -484.974 4519
3026.72 -485.669 4521
3037.94 -485.83 4518
3042.44 -484.917 4505
3052.31 -484.866 4500
3062.2 -484.817 4495
3071.42 -484.662 4489
3079.95 -484.4 4482
3093.31 -484.898 4482
3103.25 -484.857 4477
3109.71 -484.275 4467
3118.95 -484.129 4461
3128.2 -483.984 4455
3137.45 -483.841 4449
3148.84 -484.026 4446
3163.8 -484.759 4448
3179.53 -485.604 4451
3190.3 -485.688 4447
3201.09 -485.775 4443
3209 -485.426 4435
3221.26 -485.737 4433
-4793.63 -450.145 3009
-2037.89 -346.49 3366
-2036.49 -347.521 3379
-2030.84 -347.833 3385
-2023.4 -347.837 3388
-2020.71 -348.664 3399
-2015.04 -348.977 3405
-2010.53 -349.497 3413
-2008.34 -350.426 3425
-2009.03 -351.866 3442
-2011.98 -353.713 3463
-1691.53 -301.939 2966
-1688.76 -302.605 2975
-1685.4 -303.17 2983
-1675.83 -302.618 2980
-1670.22 -302.779 2984
-1665.71 -303.142 2990
-1659.53 -303.203 2993
-1655.56 -303.67 3000
-1652.67 -304.339 3009
-1647.56 -304.604 3014
-1644.62 -305.273 3023
-1642.2 -306.043 3033
-1631.66 -305.301 3028
-1626.52 -305.569 3033
-1624.05 -306.341 3043
-1613.79 -308.153 3068
-1607.53 -308.222 3071
-1596.06 -308.564 3079
-1584.05 -308.808 3086
-1574.59 -309.556 3098
-1568.82 -309.731 3102
-1564.06 -310.107 3108
-1556.28 -309.884 3108
-1551.01 -310.162 3113
-1541.27 -309.544 3109
-1539.95 -310.619 3122
-1535.15 -310.998 3128
-1477.69 -314.41 3186
-1466.74 -313.514 3179
-1464.1 -314.394 3190
-1289.77 -309.839 3188
-1281.19 -309.373 3185
-1277.42 -310.074 3194
-1268.86 -309.61 3191
-283.011 -959.065 10391
853.19 -439.877 4716
861.937 -439.518 4711
869.93 -438.786 4702
880.513 -439.362 4707
891.312 -440.033 4713
901.761 -440.519 4717
1058.79 -455.121 4856
1067.78 -454.787 4851
1080.99 -456.235 4865
1091.34 -456.466 4866
1100.13 -456.042 4860
1106.38 -454.586 4843
1344.93 -469.67 4970
1354.98 -469.655 4968
1368.06 -470.681 4977
1378.13 -470.668 4975
1388.21 -470.658 4973
1399.99 -471.216 4977
1419.62 -471.012 4971
1425.7 -469.68 4955
1433.46 -468.917 4945
2620.73 -477.799 4714
2632 -477.982 4712
2642.17 -477.963 4708
2650.65 -477.641 4701
2659.7 -477.422 4695
2668.74 -477.205 4689
2676.06 -476.684 4680
2683.37 -476.163 4671
2691.82 -475.847 4664
2701.99 -475.839 4660
2711.6 -475.73 4655
2724.13 -476.134 4655
2731.41 -475.62 4646
2743.98 -476.028 4646
2750.65 -475.413 4636
2758.5 -475.005 4628
2770.52 -475.317 4627
2789.18 -476.761 4637
2799.48 -476.77 4633
2813.43 -477.398 4635
2824.37 -477.514 4632
2826.14 -476.084 4614
2808.16 -471.349 4564
2802.29 -468.674 4534
2800.02 -466.617 4510
2805.13 -465.8 4498
2811.45 -465.191 4488
2820.28 -464.998 4482
2829.1 -464.806 4476
2839.2 -464.824 4472
2848.03 -464.635 4466
2857.5 -464.552 4461
2866.33 -464.367 4455
2875.82 -464.287 4450
2884.66 -464.104 4444
2894.8 -464.132 4440
2907.58 -464.58 4440
2928.95 -466.393 4453
2957.03 -469.26 4476
2988.6 -472.658 4504
3013.05 -474.91 4521
3027.58 -475.59 4523
3038.81 -475.748 4520
3042.63 -474.749 4506
3053.19 -474.805 4502
3062.4 -474.652 4496
3071.61 -474.5 4490
3080.15 -474.244 4483
3093.51 -474.73 4483
3102.75 -474.584 4477
3109.91 -474.121 4468
3119.85 -474.084 4463
3128.4 -473.836 4456
3137.65 -473.696 4450
3149.04 -473.877 4447
3162.57 -474.38 4447
3176.16 -474.887 4447
3188.35 -475.183 4445
3201.29 -475.589 4444
3212.82 -475.783 4441
3224.37 -475.98 4438
-2046.84 -339.297 3366
-2040.01 -339.399 3370
-2036.79 -340.106 3380
-2030.54 -340.31 3385
-2024.89 -340.616 3391
-2021.6 -341.324 3401
-2017.1 -341.831 3409
-2013.17 -342.439 3418
-2012.15 -343.548 3432
-2012.24 -344.856 3448
-2015.17 -346.663 3469
-1687.86 -294.811 2960
-1683.98 -295.265 2967
-1685.72 -296.714 2984
-1682.34 -297.266 2992
-1677.25 -297.522 2997
-1675.5 -298.373 3008
-1669.82 -298.53 3012
-1666.36 -299.084 3020
-1657.92 -298.747 3019
-1649.51 -298.412 3018
-1645.48 -298.87 3025
-1641.96 -299.426 3033
-1626.04 -297.713 3018
-1620.93 -297.976 3023
-1620.62 -299.126 3037
-1611.99 -301.195 3065
-1609.4 -301.95 3075
-1599.49 -301.332 3071
-1572.33 -302.472 3094
-1567.59 -302.839 3100
-1563.84 -303.402 3108
-1556.07 -303.185 3108
-1552.29 -303.748 3116
-1539.74 -303.903 3122
-1536.4 -304.566 3131
-1513.18 -305.277 3147
-1506.41 -305.263 3149
-1478.69 -306.464 3172
-1477.95 -307.71 3187
-1465.61 -306.544 3177
-1464.82 -307.791 3192
-1458.03 -307.784 3194
-1291.22 -303.523 3192
-1282.62 -303.066 3189
-1278.85 -303.751 3198
-1271.47 -303.582 3198
846.472 -431.823 4733
854.171 -430.922 4722
863.66 -430.936 4721
872.228 -430.494 4715
881.901 -430.601 4715
892.526 -431.166 4720
1060.18 -445.931 4863
1068.97 -445.512 4857
1081.29 -446.562 4867
1090.53 -446.329 4863
1099.54 -446.006 4858
1344.49 -459.43 4969
1354.54 -459.414 4967
1366.78 -460.141 4973
1376.85 -460.128 4971
1387.76 -460.395 4972
1399.53 -460.942 4976
1418.3 -460.464 4967
1423.79 -458.974 4949
1431.54 -458.228 4939
2622.02 -467.765 4717
2631.62 -467.645 4712
2641.78 -467.627 4708
2651.39 -467.511 4703
2660.44 -467.297 4697
2668.35 -466.886 4689
2676.82 -466.574 4682
2684.13 -466.065 4673
2689.69 -465.257 4661
2701.6 -465.548 4660
2710.04 -465.242 4653
2720.81 -465.337 4650
2729.83 -465.134 4644
2741.81 -465.433 4643
2746.69 -464.53 4630
2756.3 -464.431 4625
2768.91 -464.836 4625
2786.36 -466.048 4633
2797.85 -466.257 4631
2814.83 -467.375 4638
2826.39 -467.59 4636
2829.39 -466.393 4620
2806.51 -460.952 4562
2804.96 -459.042 4539
2802.08 -456.929 4514
2807.82 -456.232 4503
2812.28 -455.332 4490
2821.74 -455.245 4485
2830.57 -455.058 4479
2838.77 -454.77 4472
2848.87 -454.789 4468
2858.35 -454.707 4463
2867.19 -454.526 4457
2875.38 -454.244 4450
2886.17 -454.372 4447
2895.01 -454.194 4441
2907.79 -454.633 4441
2929.16 -456.406 4454
2957.24 -459.211 4477
2986.15 -462.125 4501
3011.25 -464.431 4519
3027.12 -465.302 4523
3037.67 -465.353 4519
3042.16 -464.479 4506
3052.71 -464.533 4502
3061.92 -464.383 4496
3071.14 -464.234 4490
3079.67 -463.984 4483
3093.71 -464.563 4484
3102.96 -464.42 4478
3109.42 -463.863 4468
3119.36 -463.827 4463
3127.91 -463.584 4456
3136.45 -463.343 4449
3147.12 -463.415 4445
3162.08 -464.117 4447
3175.65 -464.612 4447
3188.56 -465.006 4446
3204.38 -465.822 4449
3215.92 -466.013 4446
-2052.77 -331.601 3361
-2047.76 -331.996 3368
-2037.9 -331.604 3367
-2033.48 -332.099 3375
-2027.25 -332.299 3380
-2020.42 -332.402 3384
-2016.56 -332.997 3393
-2016.81 -334.278 3409
-2014.06 -335.069 3420
-2011.86 -335.957 3432
-2011.37 -337.139 3447
-2016.62 -339.297 3472
-1690.47 -288.785 2965
-1688.85 -289.618 2976
-1690 -290.936 2992
-1684.91 -291.185 2997
-1679.81 -291.434 3002
-1678.04 -292.266 3013
-1672.36 -292.419 3017
-1668.88 -292.961 3025
-1662.08 -292.921 3027
-1652.01 -292.303 3023
-1646.33 -292.46 3027
-1644.44 -293.294 3038
-1629.58 -291.812 3025
-1622.31 -291.682 3026
-1621.99 -292.807 3040
-1616.3 -292.968 3044
-1609.03 -292.841 3045
-1613.34 -294.83 3068
-1611.79 -295.76 3080
-1605.51 -295.827 3083
-1600.79 -296.182 3089
-1576.69 -296.651 3103
-1567.88 -296.245 3101
-1563.12 -296.605 3107
-1553.35 -296.011 3103
-1550.58 -296.753 3113
-1540.84 -296.162 3109
-1538.04 -296.905 3119
-1532.76 -297.173 3124
-1528.93 -297.726 3132
-1520.71 -297.425 3131
-1518.3 -298.264 3142
-1515.86 -299.103 3153
-1512.42 -299.753 3162
-1504.67 -299.55 3162
-1503.56 -300.673 3176
-1481.92 -301.764 3196
-1470.03 -300.717 3187
-1466.45 -301.37 3196
-1460.11 -301.458 3199
-1295.5 -297.843 3203
-1286.07 -297.21 3198
-1281.88 -297.787 3206
847.085 -422.648 4737
854.791 -421.768 4726
863.556 -421.424 4721
873.232 -421.528 4721
882.73 -421.543 4720
893.174 -422.007 4724
1067.08 -434.96 4849
1345.14 -449.558 4972
1356.28 -449.905 4974
1367.71 -450.344 4977
1378.89 -450.695 4979
1389.82 -450.956 4980
2624.98 -458.012 4723
2631.8 -457.411 4713
2641.97 -457.393 4709
2651.58 -457.28 4704
2660.06 -456.973 4697
2669.68 -456.862 4692
2678.72 -456.656 4686
2686.04 -456.158 4677
2691.61 -455.368 4665
2701.79 -455.36 4661
2709.65 -454.962 4653
2719.25 -454.86 4648
2729.44 -454.856 4644
2740.23 -454.953 4641
2746.89 -454.364 4631
2757.09 -454.365 4627
2769.71 -454.761 4627
2782.95 -455.258 4628
2794.43 -455.462 4626
2810.78 -456.457 4632
2803.64 -450.371 4558
2804.55 -448.899 4539
2803.53 -447.129 4517
2807.41 -446.15 4503
2812.5 -445.369 4491
2821.32 -445.185 4485
2830.78 -445.101 4480
2838.98 -444.819 4473
2848.45 -444.738 4468
2857.28 -444.559 4462
2867.4 -444.581 4458
2876.89 -444.505 4453
2887.03 -444.53 4449
2896.54 -444.457 4444
2911.94 -445.286 4448
2935.29 -447.322 4464
2962.74 -449.965 4486
2987.03 -452.113 4503
3011.46 -454.267 4520
3027.33 -455.119 4524
3037.88 -455.169 4520
3041.7 -454.213 4506
3051.57 -454.165 4501
3061.46 -454.119 4496
3069.99 -453.872 4489
3078.51 -453.627 4482
3092.55 -454.194 4483
3102.48 -454.155 4478
3108.95 -453.61 4468
3118.19 -453.473 4462
3127.43 -453.337 4456
3136.68 -453.203 4450
3146.64 -453.172 4445
3160.17 -453.653 4445
3172.31 -453.933 4443
3183.76 -454.113 4440
3199.56 -454.91 4443
3211.08 -455.096 4440
3224.08 -455.489 4439
-2053.09 -324.208 3362
-2048.69 -324.691 3370
-2038.82 -324.307 3369
-2031.39 -324.31 3372
-2023.36 -324.217 3374
-2018.34 -324.607 3381
-2015.68 -325.38 3392
-2015.35 -326.537 3407
-2014.37 -327.597 3421
-2013.34 -328.657 3435
-2011.67 -329.621 3448
-2016.92 -331.73 3473
-1688.61 -283.077 2976
-1693.72 -285.031 2999
-1691.42 -285.749 3009
-1685.73 -285.896 3013
-1686.16 -287.088 3028
-1677.12 -286.668 3026
-1669.2 -286.44 3026
-1661.3 -286.212 3026
-1647.46 -287.237 3044
-1626.91 -285.944 3035
-1626.03 -286.948 3048
-1619.27 -286.917 3050
-1614.1 -287.169 3055
-1615.22 -288.548 3072
-1615.23 -289.739 3087
-1605.29 -289.147 3083
-1601.09 -289.588 3090
-1592.75 -289.28 3089
-1583.91 -288.88 3087
-1575.61 -288.575 3086
-1573.94 -289.486 3098
-1563.62 -288.809 3093
-1559.39 -289.255 3100
-1554.14 -289.514 3105
-1552.37 -290.425 3117
-1545.1 -290.313 3118
-1541.78 -290.946 3127
-1535.5 -291.021 3130
-1532.63 -291.747 3140
-1524.39 -291.452 3139
-1520.03 -291.901 3146
-1518.06 -292.814 3158
-1512.22 -292.985 3162
-1506.37 -293.157 3166
-1502.89 -293.792 3175
-1495.61 -293.688 3176
-1489.01 -295.053 3195
-1482.19 -295.043 3197
-1470.76 -294.112 3189
-1464.88 -294.29 3193
-1296.95 -291.483 3207
-1287.12 -290.774 3201
-1280.52 -290.793 3203
48.7331 -138.982 1610
848.595 -413.897 4746
856.137 -412.949 4734
865.283 -412.788 4731
874.054 -412.453 4726
883.373 -412.381 4724
894.204 -413.009 4730
1347.41 -440.209 4981
1358.29 -440.46 4982
1369.74 -440.889 4985
1381.22 -441.32 4988
2629.06 -448.428 4731
2633.67 -447.461 4717
2644.41 -447.539 4714
2652.9 -447.238 4707
2661.39 -446.939 4700
2669.87 -446.64 4693
2678.92 -446.438 4687
2685.66 -445.856 4677
2692.39 -445.275 4667
2703.15 -445.363 4664
2709.26 -444.688 4653
2718.86 -444.587 4648
2726.7 -444.201 4640
2735.12 -443.911 4633
2741.16 -443.239 4622
2752.53 -443.432 4620
2766.92 -444.106 4623
2780.75 -444.688 4625
2792.22 -444.887 4623
2804.77 -438.857 4540
2803.75 -437.126 4518
2810.12 -436.557 4508
2817.73 -436.182 4500
2823.43 -435.517 4489
2832.27 -435.338 4483
2839.84 -434.966 4475
2849.95 -434.984 4471
2858.79 -434.809 4465
2869.56 -434.928 4462
2878.41 -434.756 4456
2888.56 -434.781 4452
2898.07 -434.71 4447
2914.13 -435.619 4452
2938.81 -437.804 4470
2966.27 -440.388 4492
2989.91 -442.39 4508
3009.69 -443.808 4518
3024.88 -444.542 4521
3037.43 -444.886 4520
3047.32 -444.839 4515
3056.54 -444.694 4509
3065.77 -444.551 4503
3075 -444.409 4497
3083.55 -444.17 4490
3091.4 -443.833 4482
3101.33 -443.795 4477
3107.78 -443.262 4467
3117.72 -443.227 4462
3126.96 -443.094 4456
3136.91 -443.063 4451
3148.29 -443.232 4448
3162.53 -443.802 4449
3175.4 -444.176 4448
3189.01 -444.653 4448
3203.39 -445.232 4449
3214.93 -445.414 4446
-2047.19 -317.003 3368
-2037.32 -316.628 3367
-2026.89 -316.161 3365
-2020.69 -316.353 3370
-2015.67 -316.734 3377
-2011.83 -317.303 3386
-2010.93 -318.34 3400
-2012.32 -319.75 3418
-2007.2 -320.132 3425
-2002.64 -320.607 3433
-1691.72 -276.023 2968
-1691.22 -277.004 2981
-1694.05 -278.541 3000
-1692.88 -279.427 3012
-1687.18 -279.572 3016
-1684.27 -280.18 3025
-1678.55 -280.326 3029
-1669.53 -279.917 3027
-1650.49 -281.157 3050
-1642.6 -280.938 3050
-1633.66 -280.537 3048
-1632.22 -281.425 3060
-1622.77 -280.934 3057
-1618.63 -281.363 3064
-1617.11 -282.252 3076
-1614.5 -282.957 3086
-1607.16 -282.836 3087
-1602.95 -283.267 3094
-1592.53 -282.6 3089
-1582.16 -281.935 3084
-1575.4 -281.911 3086
-1572.2 -282.528 3095
-1564.94 -282.414 3096
-1558.64 -284.903 3130
-1549.85 -284.519 3128
-1546.51 -285.137 3137
-1542.16 -285.573 3144
-1537.31 -285.918 3150
-1531.47 -286.083 3154
-1527.08 -286.521 3161
-1521.23 -286.687 3165
-1515.37 -286.854 3169
-1509.51 -287.021 3173
-1503.17 -287.099 3176
-1496.83 -287.178 3179
-1493.77 -287.89 3189
-1489.29 -288.331 3196
-1482.92 -288.411 3199
-1474.26 -288.043 3197
-1467.45 -288.035 3199
-1456.99 -287.309 3193
-1297.19 -284.843 3208
-1285.75 -283.795 3198
-1278.76 -283.725 3199
-1269.4 -283.124 3194
48.6974 -135.691 1609
849.749 -404.943 4753
856.581 -403.676 4737
865.183 -403.263 4731
874.323 -403.106 4728
883.084 -402.78 4723
892.399 -402.711 4721
2634.26 -438.997 4741
2636.11 -437.59 4722
2645.17 -437.388 4716
2654.23 -437.187 4710
2661.03 -436.616 4700
2668.94 -436.232 4692
2677.98 -436.034 4686
2684.15 -435.373 4675
2689.14 -434.525 4662
2700.46 -434.703 4660
2707.15 -434.137 4650
2716.73 -434.038 4645
2723.98 -433.567 4636
2733.56 -433.471 4631
2739.59 -432.814 4620
2750.36 -432.908 4617
2760.55 -432.91 4613
2775.56 -433.665 4617
2804.6 -427.218 4520
2812.22 -426.851 4512
2819.21 -426.391 4503
2826.18 -425.931 4494
2833.77 -425.567 4486
2840.71 -425.108 4477
2849.54 -424.936 4471
2859.02 -424.86 4466
2867.87 -424.691 4460
2877.35 -424.618 4455
2890.74 -425.119 4456
2901.56 -425.241 4453
2917.64 -426.129 4458
2943.65 -428.456 4478
2969.14 -430.693 4497
2990.14 -432.266 4509
3005.92 -433.075 4513
3022.43 -433.984 4518
3034.98 -434.32 4517
3045.53 -434.369 4513
3055.42 -434.324 4508
3066.01 -434.376 4504
3075.24 -434.238 4498
3083.78 -434.005 4491
3092.33 -433.772 4484
3100.18 -433.444 4476
3107.33 -433.021 4467
3117.26 -432.987 4462
3127.2 -432.954 4457
3137.15 -432.923 4452
3147.82 -432.991 4448
3163.49 -433.743 4451
3177.07 -434.206 4451
3192.13 -434.866 4453
3207.96 -435.629 4456
3220.96 -436.002 4455
-2015.17 -306.946 3346
-2010.22 -307.319 3353
-2004.06 -307.508 3358
-2000.28 -308.065 3367
-2000.01 -309.171 3382
-1696.05 -270.227 2976
-1693.83 -270.912 2986
-1694.96 -272.14 3002
-1697.15 -273.549 3020
-1695.35 -274.323 3031
-1689.61 -274.464 3035
-1685.53 -274.876 3042
-1679.23 -274.927 3045
-1668.54 -274.258 3040
-1658.44 -273.681 3036
-1653.28 -273.917 3041
-1648.11 -274.153 3046
-1639.16 -273.76 3044
-1629.7 -273.279 3041
-1627.2 -273.967 3051
-1623.09 -274.386 3058
-1620.01 -274.984 3067
-1619 -275.941 3080
-1618.99 -277.076 3095
-1611.12 -276.869 3095
-1604.82 -276.931 3098
-1596.45 -276.637 3097
-1584.01 -275.63 3088
-1574.18 -275.072 3084
-1569.97 -275.495 3091
-1563.72 -275.563 3094
-1557.98 -275.721 3098
-1558.74 -277.035 3115
-1555.95 -277.727 3125
-1551.63 -278.152 3132
-1547.3 -278.577 3139
-1546.38 -279.624 3153
-1541.02 -279.872 3158
-1536.62 -280.298 3165
-1529.78 -280.282 3167
-1524.4 -280.533 3172
-1516.13 -280.253 3171
-1512.17 -280.77 3179
-1505.82 -280.846 3182
-1501.35 -281.275 3189
-1496.4 -281.617 3195
-1491.89 -282.047 3202
-1479.49 -280.981 3192
-1471.76 -280.797 3192
-1459.47 -279.736 3182
-1447.69 -278.764 3173
-1297.44 -278.201 3209
-1284.79 -276.918 3196
-1278.2 -276.936 3198
-1268.45 -276.263 3192
126.984 -324.274 3938
849.832 -395.464 4754
857.569 -394.644 4743
865.452 -393.907 4733
875.15 -394.004 4733
884.293 -393.852 4730
894.188 -394.035 4731
1350.34 -420.905 4993
1372.44 -421.47 4996
2632.41 -426.707 4716
2642.58 -426.69 4712
2652.19 -426.584 4707
2660.11 -426.208 4699
2668.01 -425.832 4691
2678.77 -425.912 4688
2684.94 -425.265 4677
2689.93 -424.438 4664
2700.68 -424.521 4661
2706.78 -423.877 4650
2714.61 -423.507 4642
2725.37 -423.594 4639
2733.19 -423.227 4631
2739.82 -422.677 4621
2753.57 -423.226 4623
2764.97 -423.412 4621
2777.59 -423.782 4621
2815.38 -418.782 4538
2819.94 -417.963 4525
2826.33 -417.422 4515
2831.45 -416.696 4503
2839.69 -416.434 4496
2847.29 -416.08 4488
2856.16 -415.913 4482
2865.03 -415.747 4476
2874.54 -415.675 4471
2883.41 -415.512 4465
2894.88 -415.722 4463
2907.68 -416.121 4463
2926.4 -417.363 4472
2952.44 -419.636 4492
2973.35 -421.167 4504
2990.39 -422.141 4510
3004.17 -422.65 4511
3018.66 -423.256 4513
3033.88 -423.959 4516
3043.08 -423.819 4510
3053.64 -423.868 4506
3063.53 -423.825 4501
3073.43 -423.784 4496
3081.97 -423.556 4489
3091.2 -423.423 4483
3099.05 -423.103 4475
3106.89 -422.784 4467
3116.12 -422.655 4461
3125.35 -422.528 4455
3133.88 -422.308 4448
3145.25 -422.469 4445
3159.48 -423.012 4446
3175.18 -423.749 4449
3193.1 -424.776 4455
3208.21 -425.425 4457
3221.22 -425.79 4456
-2000.36 -298.451 3337
-1992.46 -298.37 3339
-1707.75 -264.528 2983
-1702.1 -264.663 2987
-1699.28 -265.242 2996
-1695.3 -265.645 3003
-1696.93 -266.931 3020
-1696.25 -267.863 3033
-1689.39 -267.823 3035
-1685.32 -268.226 3042
-1679.57 -268.364 3046
-1670.52 -267.975 3044
-1659.87 -267.324 3039
-1654.7 -267.554 3044
-1647.89 -267.521 3046
-1643.79 -267.927 3053
-1636.99 -267.896 3055
-1632.86 -268.303 3062
-1631.37 -269.149 3074
-1628.25 -269.731 3083
-1624.05 -270.14 3090
-1618.79 -270.374 3095
-1612.48 -270.433 3098
-1604.61 -270.232 3098
-1595.73 -269.858 3096
-1583.81 -268.962 3088
-1579.59 -269.375 3095
-1574.34 -269.614 3100
-1566.05 -269.332 3099
-1561.81 -269.746 3106
-1561.55 -270.854 3121
-1557.74 -271.355 3129
-1554.41 -271.943 3138
-1549.57 -272.271 3144
-1544.72 -272.6 3150
-1540.34 -273.016 3157
-1534.97 -273.259 3162
-1526.7 -272.984 3161
-1521.8 -273.315 3167
-1515.94 -273.474 3171
-1511.98 -273.979 3179
-1507.53 -274.397 3186
-1503.52 -274.902 3194
-1499.49 -275.407 3202
-1495.9 -275.999 3211
-1482.09 -274.7 3198
-1476.19 -274.864 3202
-1463.87 -273.827 3192
-1453.44 -273.136 3186
-1297.69 -271.558 3210
-1285.03 -270.306 3197
-1278.45 -270.323 3199
-1271.08 -270.173 3199
126.906 -316.275 3936
134.577 -315.967 3932
142.775 -316.866 3943
150.828 -317.363 3949
851.169 -386.553 4762
859.645 -386.078 4755
867.185 -385.197 4743
876.163 -384.966 4739
885.879 -385.062 4739
895.791 -385.24 4740
2637.09 -417.178 4725
2647.28 -417.162 4721
2654.66 -416.705 4712
2662.59 -416.339 4704
2671.08 -416.061 4697
2681.27 -416.05 4693
2687.46 -415.42 4682
2695.35 -415.057 4674
2703.8 -414.783 4667
2709.92 -414.155 4656
2719.52 -414.061 4651
2729.13 -413.969 4646
2735.2 -413.343 4635
2744.79 -413.253 4630
2756.18 -413.433 4628
2766.4 -413.435 4624
2776.62 -413.439 4620
2825.79 -408.751 4535
2835.34 -408.674 4530
2837.99 -407.606 4514
2848.78 -407.713 4511
2855.79 -407.278 4502
2863.42 -406.935 4494
2869.76 -406.411 4484
2881.22 -406.614 4482
2888.83 -406.273 4474
2900.97 -406.571 4473
2916.4 -407.325 4477
2935.81 -408.628 4487
2956.64 -410.119 4499
2973.6 -411.066 4505
2990.64 -412.016 4511
3001.76 -412.148 4508
3016.91 -412.83 4511
3031.45 -413.423 4513
3040.63 -413.286 4507
3050.5 -413.243 4502
3061.06 -413.292 4498
3072.32 -413.436 4495
3079.49 -413.029 4486
3090.08 -413.083 4482
3097.23 -412.678 4473
3106.45 -412.551 4467
3114.28 -412.241 4459
3124.91 -412.302 4455
3133.44 -412.086 4448
3144.81 -412.243 4445
3159.03 -412.773 4446
3176.16 -413.678 4451
3194.08 -414.68 4457
3208.48 -415.22 4458
3220.04 -415.39 4455
-1713.83 -258.923 2994
-1705.87 -258.709 2994
-1700.2 -258.841 2998
-1695.65 -259.147 3004
-1697.84 -260.487 3022
-1697.15 -261.396 3035
-1689.74 -261.272 3036
-1685.66 -261.664 3043
-1681.01 -261.971 3049
-1671.41 -261.506 3046
-1663.49 -261.299 3046
-1658.3 -261.523 3051
-1650.93 -261.405 3052
-1647.35 -261.886 3060
-1642.14 -262.111 3065
-1635.33 -262.081 3067
-1632.23 -262.649 3076
-1632.8 -263.815 3092
-1627.53 -264.042 3097
-1622.77 -264.354 3103
-1616.96 -264.498 3107
-1608.56 -264.216 3106
-1598.63 -263.68 3102
-1586.69 -262.807 3094
-1580.42 -262.869 3097
-1576.18 -263.272 3104
-1568.39 -263.081 3104
-1563.63 -263.4 3110
-1562.36 -264.312 3123
-1559.54 -264.97 3133
-1556.2 -265.543 3142
-1552.34 -266.031 3150
-1548.45 -266.52 3158
-1546.49 -267.347 3170
-1541.09 -267.583 3175
-1533.27 -267.399 3175
-1524.02 -266.964 3172
-1515.28 -266.614 3170
-1508.95 -266.685 3173
-1505.45 -267.262 3182
-1498.63 -267.251 3184
-1497.9 -268.331 3199
-1492.46 -268.573 3204
-1481.45 -267.81 3197
-1476.48 -268.137 3203
-1463.7 -267.042 3192
-1452.35 -266.201 3184
-1301.98 -265.737 3221
-1288.5 -264.351 3206
-1280.3 -264.038 3204
126.313 -307.032 3918
134.186 -307.281 3921
142.362 -308.157 3932
150.43 -308.721 3939
849.827 -376.426 4755
858.83 -376.199 4751
866.544 -375.419 4740
875.884 -375.353 4738
885.223 -375.288 4736
894.75 -375.303 4735
2637.32 -406.924 4726
2648.07 -406.995 4723
2654.89 -406.464 4713
2662.26 -406.02 4704
2670.74 -405.749 4697
2679.79 -405.566 4691
2685.97 -404.951 4680
2693.27 -404.51 4671
2702.88 -404.416 4666
2711.32 -404.15 4659
2722.68 -404.319 4657
2729.95 -403.882 4648
2738.38 -403.62 4641
2745.63 -403.184 4632
2752.25 -402.662 4622
2761.85 -402.577 4617
2776.26 -403.191 4620
2849.37 -400.567 4553
2857.1 -400.232 4545
2862.93 -399.633 4534
2870.64 -399.299 4526
2877.7 -398.878 4517
2883.46 -398.281 4506
2893.7 -398.304 4502
2903.95 -398.328 4498
2915.5 -398.53 4496
2938.69 -398.942 4492
2954.27 -399.685 4496
2969.25 -400.341 4499
2987.59 -401.446 4507
3000.03 -401.752 4506
3015.17 -402.417 4509
3031.71 -403.263 4514
3040.23 -403.04 4507
3051.45 -403.177 4504
3061.33 -403.135 4499
3071.91 -403.185 4495
3079.76 -402.878 4487
3089.66 -402.841 4482
3098.19 -402.627 4475
3107.42 -402.503 4469
3115.26 -402.2 4461
3125.19 -402.169 4456
3133.02 -401.869 4448
3145.08 -402.112 4446
3160.02 -402.72 4448
3181.43 -404.146 4459
3200.09 -405.215 4466
3214.51 -405.742 4467
3226.1 -405.909 4464
-1916.48 -274.868 3242
-1904.18 -274.124 3236
-1889.6 -273.044 3226
-1876.25 -272.135 3218
-1719.91 -253.272 3005
-1708.51 -252.557 2999
-1700.56 -252.349 2999
-1697.14 -252.816 3007
-1695.38 -253.534 3018
-1694.71 -254.42 3031
-1686.19 -254.131 3030
-1683.24 -254.682 3039
-1679.7 -255.148 3047
-1671.76 -254.946 3047
-1664.38 -254.829 3048
-1658.09 -254.879 3051
-1647.49 -254.263 3046
-1646.08 -255.067 3058
-1639.27 -255.036 3060
-1630.86 -254.757 3059
-1631.5 -255.894 3075
-1631.55 -256.947 3090
-1624.18 -256.836 3091
-1618.92 -257.058 3096
-1617.29 -257.862 3108
-1607.85 -257.421 3105
-1601.01 -257.397 3107
-1589.57 -256.628 3100
-1581.76 -256.44 3100
-1574.98 -256.419 3102
-1566.68 -256.151 3101
-1561.43 -256.379 3106
-1559.17 -257.103 3117
-1556.87 -257.827 3128
-1551.56 -258.056 3133
-1547.72 -258.533 3141
-1543.37 -258.928 3148
-1541.92 -259.816 3161
-1536.06 -259.965 3165
-1531.64 -260.361 3172
-1521.92 -259.855 3168
-1514.15 -259.678 3168
-1505.92 -259.42 3167
-1502.44 -259.982 3176
-1497.04 -260.218 3181
-1495.86 -261.189 3195
-1489.96 -261.343 3199
-1482.66 -261.253 3200
-1478.15 -261.653 3207
-1466.28 -260.749 3198
-1455.38 -260.01 3191
-1299.81 -258.587 3216
-1289.56 -257.878 3209
-1280.55 -257.413 3205
126.783 -300.384 3933
134.549 -300.321 3932
142.637 -300.946 3940
150.454 -300.961 3940
158.431 -301.281 3944
858.017 -366.34 4747
865.54 -365.502 4735
875.793 -365.824 4738
884.57 -365.529 4733
894.657 -365.775 4735
2654.56 -396.138 4713
2660.23 -395.452 4701
2669.27 -395.272 4695
2680.6 -395.431 4693
2689.08 -395.169 4686
2694.09 -394.402 4673
2705.44 -394.564 4671
2715.06 -394.474 4666
2725.85 -394.555 4663
2733.13 -394.129 4654
2742.17 -393.958 4648
2750.62 -393.704 4641
2755.48 -392.941 4628
2762.7 -392.519 4619
2777.11 -393.117 4622
2861.52 -392.104 4573
2870.56 -391.951 4567
2875.82 -391.283 4555
2884.86 -391.131 4549
2893.25 -390.894 4542
2901.01 -390.573 4534
2910.03 -390.424 4528
2919.71 -390.364 4523
2929.39 -390.304 4518
2941.69 -390.592 4517
2950.09 -390.363 4510
2963.74 -390.828 4511
2977.44 -391.295 4512
2993.17 -392.026 4516
3004.96 -392.238 4514
3015.44 -392.278 4510
3030.64 -392.929 4513
3039.83 -392.798 4507
3051.05 -392.931 4504
3060.25 -392.803 4498
3072.19 -393.027 4496
3080.04 -392.727 4488
3090.63 -392.779 4484
3098.48 -392.482 4476
3107.01 -392.274 4469
3115.54 -392.066 4462
3124.77 -391.949 4456
3132.6 -391.656 4448
3143.95 -391.805 4445
3157.47 -392.22 4445
3177.44 -393.434 4454
3195.36 -394.386 4460
3209.05 -394.81 4460
3222.05 -395.149 4459
-1939.22 -268.913 3251
-1920.88 -267.357 3235
-1911.52 -267.044 3234
-1898.66 -266.238 3227
-1888.2 -265.764 3224
-1876.02 -265.044 3218
-1717.99 -246.426 3002
-1708.3 -245.976 2999
-1696.94 -246.228 3007
-1695.18 -246.927 3018
-1692.27 -247.463 3027
-1685.99 -247.509 3030
-1683.59 -248.127 3040
-1681.16 -248.745 3050
-1675.4 -248.873 3054
-1668.55 -248.84 3056
-1660.07 -248.564 3055
-1651.62 -248.288 3054
-1648.04 -248.745 3062
-1640.68 -248.635 3063
-1633.87 -248.606 3065
-1633.96 -249.632 3080
-1629.25 -249.928 3086
-1621.89 -249.82 3087
-1616.64 -250.037 3092
-1613.46 -250.577 3101
-1601.45 -249.745 3093
-1597.22 -250.125 3100
-1588.88 -249.861 3099
-1584.13 -250.162 3105
-1576.82 -250.06 3106
-1569.53 -249.96 3107
-1564.77 -250.262 3113
-1557.99 -250.244 3115
-1552.21 -250.387 3119
-1547.42 -250.691 3125
-1542.12 -250.916 3130
-1537.3 -251.221 3136
-1536.38 -252.167 3150
-1529.57 -252.152 3152
-1524.71 -252.458 3158
-1519.35 -252.685 3163
-1511.59 -252.513 3163
-1506.22 -252.742 3168
-1502.74 -253.289 3177
-1496.87 -253.438 3181
-1493.81 -254.066 3191
-1488.39 -254.296 3196
-1479.25 -253.89 3193
-1474.75 -254.28 3200
-1461.07 -253.083 3187
-1450.65 -252.443 3181
-1444.81 -252.598 3185
-1300.47 -252.007 3218
-1291.43 -251.552 3214
-1283.21 -251.255 3212
-220.398 -770.866 10365
64.3593 -292.265 3930
72.1461 -292.272 3930
79.7708 -291.684 3922
126.835 -292.712 3935
134.501 -292.427 3931
142.515 -292.887 3937
150.247 -292.752 3935
158.255 -293.139 3940
857.569 -356.65 4745
865.451 -355.985 4735
875.149 -356.072 4735
883.171 -355.484 4726
893.999 -356.024 4732
2693.92 -385.611 4695
2722.29 -385.265 4679
2728.44 -384.685 4668
2735.15 -384.188 4658
2744.79 -384.105 4653
2751.47 -383.61 4643
2755.15 -382.701 4628
2768.34 -383.117 4629
2873.05 -383.472 4592
2880.89 -383.157 4584
2887.46 -382.675 4574
2895.91 -382.445 4567
2904.36 -382.216 4560
2912.8 -381.988 4553
2920.59 -381.677 4545
2928.38 -381.367 4537
2937.45 -381.226 4531
2946.53 -381.086 4525
2954.95 -380.864 4518
2969.28 -381.401 4520
2981.68 -381.688 4519
2995.44 -382.146 4520
3005.91 -382.184 4516
3015.73 -382.138 4511
3030.26 -382.687 4513
3040.79 -382.73 4509
3052.01 -382.859 4506
3061.22 -382.735 4500
3071.79 -382.783 4496
3079.64 -382.491 4488
3090.24 -382.541 4484
3098.08 -382.252 4476
3108.69 -382.305 4472
3116.53 -382.018 4464
3126.47 -381.989 4459
3135.71 -381.876 4453
3147.08 -382.021 4450
3159.19 -382.254 4448
3177.74 -383.264 4455
3194.94 -384.105 4460
3207.19 -384.346 4458
3220.9 -384.762 4458
-1953.72 -261.775 3246
-1949.04 -262.109 3253
-1933.62 -260.996 3242
-1918.28 -259.885 3231
-1910.7 -259.822 3233
-1898.43 -259.117 3227
-1890.32 -258.976 3228
-1879.88 -258.516 3225
-1726.37 -241.034 3017
-1712.09 -239.956 3006
-1704.69 -239.839 3007
-1700.69 -240.2 3014
-1696.67 -240.562 3021
-1689.83 -240.527 3023
-1686.35 -240.969 3031
-1682.29 -241.332 3038
-1677.65 -241.616 3044
-1673.01 -241.9 3050
-1668.35 -242.185 3056
-1660.42 -241.995 3056
-1653.05 -241.885 3057
-1648.92 -242.251 3064
-1642.63 -242.301 3067
-1634.21 -242.036 3066
-1631.65 -242.64 3076
-1626.95 -242.929 3082
-1620.13 -242.903 3084
-1610.18 -242.406 3080
-1609.11 -243.247 3093
-1599.19 -242.752 3089
-1593.43 -242.887 3093
-1585.11 -242.63 3092
-1583.44 -243.393 3104
-1576.14 -243.295 3105
-1572.39 -243.745 3113
-1566.6 -243.883 3117
-1560.81 -244.021 3121
-1554.02 -244.004 3123
-1550.71 -244.534 3132
-1543.42 -244.44 3133
-1538.6 -244.737 3139
-1537.67 -245.657 3153
-1531.83 -245.799 3157
-1525.5 -245.863 3160
-1518.69 -245.85 3162
-1509.98 -245.528 3160
-1505.1 -245.828 3166
-1500.68 -246.206 3173
-1494.35 -246.274 3176
-1491.3 -246.885 3186
-1489.16 -247.651 3198
-1481.4 -247.488 3198
-1475.51 -247.636 3202
-1465.03 -247.011 3196
-1454.59 -246.388 3190
-1303.97 -245.955 3227
-1293.7 -245.284 3220
-1284.27 -244.766 3215
-1280.04 -245.238 3223
-240.497 -748.983 10347
-220.482 -750.626 10370
64.6151 -285.612 3946
72.4329 -285.619 3946
80.0073 -284.757 3934
87.8918 -285.055 3938
134.797 -285.263 3940
142.827 -285.711 3946
150.386 -285.218 3939
157.998 -284.87 3934
856.941 -346.898 4742
865.366 -346.47 4735
875.432 -346.701 4737
883.645 -346.202 4729
894.477 -346.728 4735
2870.83 -372.971 4589
2883.06 -373.233 4588
2889.64 -372.764 4578
2900 -372.785 4574
2909.1 -372.644 4568
2918.2 -372.505 4562
2926.66 -372.284 4555
2934.47 -371.983 4547
2942.93 -371.765 4540
2949.42 -371.302 4530
2957.86 -371.085 4523
2972.2 -371.609 4525
2983.29 -371.724 4522
2997.72 -372.252 4524
3008.2 -372.289 4520
3016.69 -372.08 4513
3027.87 -372.202 4510
3039.06 -372.326 4507
3050.28 -372.452 4504
3060.84 -372.496 4500
3070.73 -372.459 4495
3080.63 -372.424 4490
3089.85 -372.307 4484
3099.07 -372.192 4478
3108.3 -372.077 4472
3118.24 -372.048 4467
3128.18 -372.019 4462
3137.43 -371.909 4456
3150.93 -372.302 4456
3165.18 -372.78 4457
3181.61 -373.512 4461
3197.4 -374.164 4464
3208.22 -374.231 4460
3220.49 -374.468 4458
-1946.87 -253.72 3235
-1940.43 -253.812 3239
-1929.82 -253.356 3236
-1917.46 -252.667 3230
-1911.67 -252.84 3235
-1900.57 -252.311 3231
-1893.61 -252.33 3234
-1881.42 -251.648 3228
-1730.75 -235.034 3025
-1713.6 -233.597 3009
-1702.79 -233.017 3004
-1700.49 -233.602 3014
-1694.23 -233.644 3017
-1685.17 -233.3 3015
-1683.38 -233.963 3026
-1679.88 -234.394 3034
-1674.16 -234.516 3038
-1668.98 -234.715 3043
-1666.53 -235.301 3053
-1658.61 -235.117 3053
-1652.87 -235.241 3057
-1648.2 -235.52 3063
-1642.98 -235.722 3068
-1635.1 -235.541 3068
-1629.35 -235.669 3072
-1624.65 -235.95 3078
-1616.27 -235.695 3077
-1607.38 -235.365 3075
-1607.89 -236.413 3091
-1602.12 -236.543 3095
-1593.77 -236.291 3094
-1585.44 -236.042 3093
-1582.24 -236.555 3102
-1574.95 -236.459 3103
-1571.2 -236.898 3111
-1566.93 -237.26 3118
-1561.64 -237.471 3123
-1554.85 -237.454 3125
-1551.03 -237.893 3133
-1544.73 -237.954 3136
-1540.88 -238.394 3144
-1537.01 -238.834 3152
-1530.2 -238.82 3154
-1523.4 -238.808 3156
-1517.09 -238.871 3159
-1507.43 -238.407 3155
-1503.04 -238.774 3162
-1498.62 -239.142 3169
-1493.72 -239.434 3175
-1490.68 -240.029 3185
-1488.53 -240.774 3197
-1484.02 -241.142 3204
-1475.35 -240.834 3202
-1463.96 -240.077 3194
-1450.79 -239.02 3182
-1305.05 -239.423 3230
-1295.17 -238.844 3224
-1284.14 -238.044 3215
-1277.13 -237.986 3216
64.7237 -278.265 3953
72.6464 -278.623 3958
80.3048 -277.996 3949
134.955 -277.784 3945
142.741 -277.727 3944
150.448 -277.529 3941
158.144 -277.332 3938
165.619 -276.784 3930
855.775 -336.947 4736
864.369 -336.602 4730
874.608 -336.898 4733
881.504 -335.914 4718
891.179 -335.998 4718
2890.88 -364.007 4601
2896.87 -363.473 4590
2906.63 -363.415 4585
2914.48 -363.12 4577
2924.25 -363.064 4572
2932.1 -362.771 4564
2941.22 -362.638 4558
2949.71 -362.427 4551
2959.48 -362.375 4546
2966.66 -362.007 4537
2978.41 -362.197 4535
2988.87 -362.23 4531
3001.33 -362.505 4530
3010.5 -362.38 4524
3019 -362.177 4517
3029.52 -362.216 4513
3040.72 -362.337 4510
3051.94 -362.459 4507
3061.83 -362.422 4502
3072.4 -362.467 4498
3080.94 -362.271 4491
3090.16 -362.158 4485
3098.7 -361.964 4478
3109.31 -362.015 4474
3119.95 -362.067 4470
3130.6 -362.121 4466
3140.56 -362.095 4461
3152.66 -362.315 4459
3166.92 -362.78 4460
3181.93 -363.33 4462
3195.57 -363.719 4462
3206.38 -363.784 4458
3222.26 -364.422 4461
-1936.02 -246.111 3232
-1927.22 -245.897 3232
-1916.06 -245.38 3228
-1912.04 -245.776 3236
-1900.35 -245.186 3231
-1893.4 -245.204 3234
-1880.62 -244.466 3227
-1732.28 -228.623 3028
-1713.98 -227.076 3010
-1706.01 -226.89 3010
-1702.56 -227.307 3018
-1696.85 -227.423 3022
-1685.54 -226.788 3016
-1683.75 -227.432 3027
-1676.93 -227.4 3029
-1673.97 -227.894 3038
-1666.06 -227.713 3038
-1662.52 -228.133 3046
-1655.17 -228.029 3047
-1651.06 -228.375 3054
-1645.33 -228.496 3058
-1638.52 -228.469 3060
-1631.19 -228.369 3061
-1625.99 -228.567 3066
-1619.73 -228.617 3069
-1612.94 -228.593 3071
-1604.07 -228.273 3069
-1604.6 -229.292 3085
-1599.88 -229.567 3091
-1593.6 -229.62 3094
-1583.22 -229.08 3089
-1583.09 -230.025 3104
-1572.75 -229.487 3099
-1569.01 -229.913 3107
-1562.24 -229.896 3109
-1558.47 -230.323 3117
-1549.71 -230.011 3115
-1549.38 -230.955 3130
-1543.58 -231.088 3134
-1541.21 -231.737 3145
-1534.41 -231.723 3147
-1528.59 -231.857 3151
-1518.9 -231.404 3147
-1513.09 -231.539 3151
-1504.88 -231.308 3150
-1502.88 -232.033 3162
-1499.41 -232.537 3171
-1497.33 -233.261 3183
-1493.33 -233.691 3191
-1492.1 -234.562 3205
-1485.72 -234.627 3208
-1477.04 -234.327 3206
-1465.64 -233.591 3198
-1298.45 -231.512 3214
-1289.41 -231.094 3210
-1282.01 -230.964 3210
64.7176 -270.412 3953
72.6765 -270.897 3960
80.5009 -270.836 3959
135.319 -270.698 3956
143.017 -270.437 3952
150.587 -269.971 3945
158.21 -269.643 3940
165.689 -269.11 3932
857.863 -328.268 4748
866.846 -328.071 4744
876.189 -328.013 4742
882.73 -326.918 4725
891.851 -326.792 4722
2906.29 -353.152 4585
2915.42 -353.019 4579
2925.19 -352.965 4574
2933.04 -352.68 4566
2939.59 -352.242 4556
2947.42 -351.958 4548
2956.54 -351.831 4542
2969.58 -352.17 4542
2983.32 -352.589 4543
2993.8 -352.621 4539
3004.3 -352.655 4535
3012.81 -352.457 4528
3020.65 -352.182 4520
3030.5 -352.142 4515
3040.36 -352.103 4510
3050.91 -352.143 4506
3062.83 -352.342 4504
3072.72 -352.308 4499
3082.63 -352.275 4494
3089.79 -351.929 4485
3099.71 -351.898 4480
3108.25 -351.711 4473
3118.88 -351.762 4469
3129.52 -351.814 4465
3140.89 -351.947 4462
3153.7 -352.239 4461
3167.25 -352.612 4461
3180.13 -352.909 4460
3193.04 -353.208 4459
3203.12 -353.191 4454
3217.54 -353.652 4455
-1928.8 -238.975 3235
-1916.45 -238.326 3229
-1735.52 -222.422 3034
