ply
format ascii 1.0
element vertex 2239
property float x
property float y
property float z
end_header
240.435 965.884 2340
245.599 966.851 2342
250.452 966.583 2341
254.975 965.078 2337
259.929 965.228 2337
264.999 965.794 2338
270.075 966.363 2339
275.04 966.522 2339
280.607 968.751 2344
285.709 969.329 2345
290.943 970.324 2347
296.061 970.909 2348
300.802 970.256 2346
305.277 968.779 2342
308.809 964.408 2331
310.952 955.899 2310
309.949 910.085 2198
314.073 908.611 2194
318.473 907.968 2192
2171.31 967.575 1588
-2202.16 932.788 1415
-2199.97 933.862 1421
-2194.7 933.631 1425
-2192.53 934.72 1431
-2188.83 935.163 1436
-2188.19 936.914 1443
-2192.05 940.607 1453
-2192.86 943.001 1461
-2193.63 945.391 1469
-2194.38 947.78 1477
-2193.61 949.526 1484
-2194.31 951.912 1492
-2192.04 953.024 1498
-2195.61 956.678 1508
-2194.76 958.425 1515
-2192.47 959.544 1521
-2193.04 961.926 1529
-2193.59 964.306 1537
-2191.26 965.432 1543
-2193.18 968.436 1552
-2192.24 970.19 1559
-2191.28 971.946 1566
-2193.1 974.941 1575
-2193.49 977.315 1583
-2191.1 978.455 1589
-2190.08 980.215 1596
-2191.77 983.202 1605
-2194.79 986.795 1615
-2197.74 990.379 1625
-2197.96 992.742 1633
-2203.51 997.529 1645
-2196.98 996.858 1648
-2189.16 995.597 1650
-2185.35 996.159 1655
-2180.24 996.128 1659
-2173.84 995.509 1662
-2166.18 994.305 1664
-2161.16 994.31 1668
-2149.71 991.351 1667
-2144.75 991.382 1671
-2135.99 989.648 1672
-2132.37 990.293 1677
-2128.93 993.367 1690
-2124.06 993.442 1694
-2111.89 992.451 1700
-2097.2 987.896 1696
-2086.3 985.114 1695
-2084.06 986.413 1701
-2076.93 985.4 1703
-2067.41 983.247 1703
-2066.41 985.144 1710
-2066.6 987.617 1718
-2058.38 986.073 1719
-259.018 927.866 2233
-254.163 927.299 2232
-250.655 931.72 2243
-247.541 937.804 2258
-244.365 943.889 2273
-241.656 952.051 2293
-238.141 957.307 2306
-233.864 959.659 2312
-229.367 961.183 2316
-224.467 961.05 2316
-219.569 960.919 2316
-215.136 962.866 2321
-210.412 963.571 2323
-205.594 963.864 2324
-200.859 964.574 2326
-195.781 963.628 2324
-190.63 962.271 2321
-186.055 963.819 2325
-181.308 964.541 2327
-176.251 963.607 2325
-171.647 965.163 2329
-166.955 966.306 2332
-162.044 966.21 2332
-157.269 966.945 2334
-152.879 970.169 2342
-147.888 969.666 2341
-142.902 969.167 2340
-137.863 968.256 2338
-132.834 967.349 2336
-127.595 964.788 2330
-122.751 965.129 2331
-117.853 965.059 2331
-112.957 964.991 2331
-108.108 965.34 2332
-103.344 966.52 2335
-98.526 967.289 2337
-93.6607 967.647 2338
-88.8301 968.421 2340
-83.7048 965.887 2334
-78.9094 967.081 2337
-74.0388 967.45 2338
-69.1942 968.236 2340
-64.2595 967.783 2339
-59.5324 970.643 2346
-54.6602 971.437 2348
-49.7166 970.992 2347
-44.7585 970.137 2345
-39.8261 969.699 2344
-34.8388 967.608 2339
-29.8726 965.521 2334
-25.0026 966.332 2336
-20.116 966.732 2337
-15.2188 966.722 2337
-10.3392 968.369 2341
-5.43377 968.364 2341
-0.52819 967.948 2340
4.3788 968.777 2342
9.29391 969.608 2344
14.2117 970.028 2345
19.1341 970.451 2346
24.0605 970.877 2347
28.9542 970.065 2345
33.8687 970.083 2345
38.8168 970.931 2347
43.699 970.128 2345
48.5317 968.5 2341
53.4621 968.943 2342
58.3473 968.561 2341
63.256 968.597 2341
68.2234 969.462 2343
73.1373 969.503 2343
77.9521 968.306 2340
82.8611 968.352 2340
87.6207 966.746 2336
92.6021 967.626 2338
97.7595 970.165 2344
102.899 972.293 2349
107.877 972.768 2350
113.004 974.488 2354
117.798 973.313 2351
122.372 970.485 2344
126.917 967.659 2337
131.66 966.492 2334
136.684 967.399 2336
141.657 967.894 2337
146.51 967.564 2336
151.684 969.307 2340
156.81 970.64 2343
161.673 970.319 2342
166.533 970 2341
171.537 970.513 2342
176.774 972.272 2346
181.641 971.962 2345
186.346 970.826 2342
191.449 971.766 2344
196.394 971.879 2344
200.74 969.092 2337
205.498 968.381 2335
210.43 968.503 2335
215.179 967.798 2333
219.922 967.095 2331
224.851 967.226 2331
229.979 968.188 2333
234.715 967.494 2331
239.548 967.218 2330
244.378 966.944 2329
249.42 967.504 2330
253.814 965.576 2325
258.857 966.141 2326
264.246 967.956 2330
269.424 968.944 2332
274.025 967.856 2329
279.573 970.097 2334
284.779 971.094 2336
289.749 971.263 2336
294.721 971.434 2336
299.696 971.609 2336
304.282 970.539 2333
307.665 965.726 2321
310.272 915.673 2199
2164.69 971.738 1589
2172.43 973.004 1587
-2207.9 935.944 1402
-2204.13 936.345 1407
-2197.26 935.427 1410
-2196.65 937.174 1417
-2194.47 938.262 1423
-2199.97 942.643 1434
-2200.81 945.042 1442
-2203.14 948.093 1451
-2202.4 949.835 1458
-2203.15 952.227 1466
-2199.39 952.675 1471
-2197.13 953.777 1477
-2193.4 954.241 1482
-2192.62 955.998 1489
-2191.83 957.756 1496
-2193.94 960.793 1505
-2194.56 963.188 1513
-2192.26 964.311 1519
-2195.7 967.971 1529
-2193.38 969.098 1535
-2191.05 970.23 1541
-2192.97 973.25 1550
-2193.44 975.64 1558
-2189.68 976.153 1563
-2190.11 978.544 1571
-2190.52 980.933 1579
-2188.14 982.083 1585
-2187.13 983.854 1592
-2187.47 986.244 1600
-2189.15 989.247 1609
-2189.44 991.632 1617
-2189.69 994.016 1625
-2192.6 997.619 1635
-2186.12 996.955 1638
-2178.35 995.696 1640
-2170.62 994.455 1642
-2164.26 993.834 1645
-2155.31 992.021 1646
-2154.25 993.835 1653
-2153.17 995.65 1660
-2144.32 993.876 1661
-2135.54 992.121 1662
-2129.37 991.575 1665
-2127.05 992.823 1671
-2122.19 992.89 1675
-2117.35 992.966 1679
-2115.04 994.232 1685
-2106.48 992.559 1686
-2100.46 992.076 1689
-2085.8 987.504 1685
-2083.57 988.808 1691
-2082.57 990.699 1698
-2076.66 990.262 1701
-2067.13 988.094 1701
-2068.56 991.161 1710
-2068.73 993.645 1718
-2056.9 990.356 1716
-258.823 931.862 2230
-253.857 930.874 2228
-250.914 937.409 2244
-248.126 944.78 2262
-244.294 948.393 2271
-241.376 955.766 2289
-237.868 961.052 2302
-233.294 962.165 2305
-228.511 962.447 2306
-223.726 962.73 2307
-218.844 962.599 2307
-214.242 963.723 2310
-209.539 964.433 2312
-204.653 964.31 2312
-199.94 965.025 2314
-194.969 964.491 2313
-189.839 963.127 2310
-185.283 964.684 2314
-180.713 966.244 2318
-175.596 964.888 2315
-170.936 966.037 2318
-166.337 967.604 2322
-161.305 966.674 2320
-156.553 967.414 2322
-152.054 969.822 2328
-147.026 968.901 2326
-142.131 968.816 2326
-137.118 967.901 2324
-132.172 967.405 2323
-127.067 965.663 2319
-122.349 966.839 2322
-117.467 966.768 2322
-112.587 966.7 2322
-107.661 966.219 2321
-102.829 966.573 2322
-97.909 966.098 2321
-93.0344 966.042 2321
-88.1226 965.572 2320
-83.1799 964.689 2318
-78.3814 965.474 2320
-73.6388 967.094 2324
-68.7911 967.468 2325
-63.9949 968.677 2328
-59.2374 970.721 2333
-54.3896 971.519 2335
-49.4491 970.657 2333
-44.5556 970.629 2333
-39.6286 969.772 2331
-34.6506 967.254 2325
-29.7109 965.155 2320
-24.889 966.802 2324
-20.0073 966.373 2323
-15.1496 967.195 2325
-10.3013 969.683 2331
-5.41634 970.094 2332
-0.526688 969.26 2330
4.36048 969.677 2331
9.24761 969.681 2331
14.129 969.272 2330
19.0306 970.113 2332
23.9307 970.541 2333
28.8351 970.973 2334
33.7584 971.823 2336
38.6407 971.428 2335
43.5378 971.452 2335
48.3525 969.814 2331
53.2875 970.676 2333
58.0819 969.044 2329
63.0223 969.912 2331
67.9426 970.366 2332
72.8365 970.407 2332
77.5308 967.954 2326
82.4486 968.417 2327
87.2589 967.634 2325
92.1014 967.27 2324
97.1904 969.407 2329
102.389 972.379 2336
107.343 972.856 2337
112.302 973.337 2338
117.265 973.82 2339
121.869 971.392 2333
126.503 969.383 2328
131.173 967.793 2324
136.12 968.287 2325
141.012 968.369 2325
145.717 967.203 2322
150.735 968.123 2324
156.031 970.713 2330
160.938 970.806 2330
165.776 970.485 2329
170.905 971.834 2332
176.198 974.019 2337
180.972 973.291 2335
185.739 972.565 2333
190.744 973.092 2334
195.671 973.206 2334
200.084 970.82 2328
204.826 970.105 2326
210.013 971.478 2329
214.752 970.769 2327
219.579 970.48 2326
224.211 969.358 2323
229.128 969.492 2323
233.644 967.958 2319
238.351 967.263 2317
243.157 966.987 2316
248.496 968.802 2320
252.871 966.862 2315
257.896 967.43 2316
263.267 969.255 2320
268.542 970.665 2323
272.891 968.736 2318
278.419 970.988 2323
283.849 972.826 2327
288.803 972.995 2327
293.506 972.331 2325
298.588 972.924 2326
302.634 970.174 2319
305.724 964.496 2305
309.132 945.191 2258
309.09 930.721 2223
311.02 922.531 2203
314.873 920.203 2197
319.576 920.391 2197
-2206.13 939.904 1399
-2197.65 938.297 1401
-2192.37 938.048 1405
-2191.78 939.81 1412
-2191.17 941.572 1419
-2193.62 944.659 1428
-2196.02 947.74 1437
-2196.86 950.156 1445
-2199.18 953.225 1454
-2199.95 955.634 1462
-2197.7 956.738 1468
-2196.94 958.497 1475
-2194.68 959.609 1481
-2193.89 961.373 1488
-2191.63 962.494 1494
-2193.74 965.547 1503
-2192.91 967.315 1510
-2189.17 967.806 1515
-2191.2 970.854 1524
-2188.89 971.99 1530
-2186.59 973.132 1536
-2188.53 976.174 1545
-2190.43 979.212 1554
-2186.68 979.73 1559
-2189.93 983.391 1569
-2188.95 985.168 1576
-2185.19 985.7 1581
-2185.57 988.106 1589
-2183.18 989.269 1595
-2182.16 991.056 1602
-2181.12 992.846 1609
-2181.42 995.252 1617
-2179.01 996.428 1623
-2175.25 996.997 1628
-2171.51 997.574 1633
-2163.81 996.331 1635
-2158.79 996.32 1639
-2147.24 993.287 1638
-2146.21 995.118 1645
-2145.17 996.951 1652
-2135.06 994.571 1652
-2127.6 993.414 1654
-2125.3 994.668 1660
-2123 995.927 1666
-2113.08 993.611 1666
-2113.33 996.076 1674
-2107.27 995.571 1677
-2099.99 994.486 1679
-2095.23 994.597 1683
-2085.54 992.358 1683
-2083.32 993.669 1689
-2086 997.331 1699
-2082.51 998.057 1704
-2071.73 995.284 1703
-2073.14 998.362 1712
-2072.09 1000.27 1719
-258.396 935.013 2225
-253.666 934.86 2225
-249.945 938.491 2234
-247.066 945.484 2251
-243.255 949.118 2260
-240.254 956.113 2277
-236.768 961.43 2290
-232.318 962.97 2294
-227.655 963.673 2296
-222.888 963.958 2297
-218.025 963.827 2297
-213.534 965.377 2301
-208.938 966.51 2304
-203.711 964.71 2300
-199.021 965.429 2302
-194.072 964.893 2301
-188.882 963.102 2297
-184.432 965.087 2302
-179.884 966.657 2306
-174.941 966.132 2305
-170.447 968.125 2310
-165.647 968.444 2311
-160.774 968.348 2311
-156.038 969.092 2313
-151.556 971.514 2319
-146.544 970.588 2317
-141.603 970.084 2316
-136.609 969.164 2314
-131.681 968.665 2313
-126.539 966.495 2308
-121.788 967.259 2310
-116.98 967.607 2311
-112.071 967.121 2310
-107.26 967.474 2311
-102.491 968.249 2313
-97.587 967.771 2312
-92.568 966.04 2308
-87.6046 964.732 2305
-82.6904 963.844 2303
-77.9207 964.633 2305
-73.175 965.844 2308
-68.4173 967.057 2311
-63.7302 969.529 2317
-58.993 971.584 2322
-54.1421 971.97 2323
-49.2876 972.357 2324
-44.41 972.329 2324
-39.4651 970.631 2320
-34.537 968.935 2316
-29.639 967.661 2313
-24.7753 967.226 2312
-19.9245 967.213 2312
-15.1131 969.713 2318
-10.2546 970.123 2319
-5.3896 970.118 2319
-0.524433 969.698 2318
4.33841 969.699 2318
9.19334 968.866 2316
14.0521 968.873 2316
18.9191 969.301 2317
23.7904 969.731 2318
28.6541 969.746 2318
33.5321 970.183 2319
38.4314 971.041 2321
43.3581 972.32 2324
48.1524 970.673 2320
53.0673 971.539 2322
57.8663 970.317 2319
62.7616 970.771 2320
67.5742 969.972 2318
72.4416 970.013 2318
77.2093 968.801 2315
82.0715 968.848 2315
86.8971 968.479 2314
91.7192 968.113 2313
96.8717 971.099 2320
101.835 971.994 2322
106.762 972.474 2323
111.598 972.12 2322
116.532 972.606 2323
121.156 970.582 2318
125.979 970.236 2317
130.798 969.893 2316
135.673 969.972 2316
140.549 970.053 2316
145.175 968.462 2312
150.11 968.968 2313
155.251 970.734 2317
160.204 971.246 2318
165.091 971.342 2318
170.199 972.698 2321
175.397 974.477 2325
180.148 973.743 2323
184.813 972.594 2320
189.957 973.962 2323
194.696 973.237 2321
199.084 970.837 2315
203.978 970.956 2315
209.144 972.337 2318
213.955 972.043 2317
218.953 972.591 2318
223.571 971.463 2315
228.276 970.757 2313
232.774 969.215 2309
237.463 968.515 2307
242.145 967.817 2305
247.357 969.222 2308
252.037 968.53 2306
256.934 968.681 2306
262.401 970.936 2311
267.776 972.774 2315
272.228 971.254 2311
277.385 972.257 2313
282.797 974.106 2317
287.856 974.695 2318
292.164 972.765 2313
297.224 973.361 2314
301.508 971.436 2309
304.578 965.726 2295
306.244 955.808 2271
308.357 947.572 2251
308.579 933.863 2218
311.346 928.153 2204
315.347 926.234 2199
319.475 924.739 2195
-2194.89 939.804 1390
-2188.04 938.874 1393
-2185.92 939.978 1399
-2185.36 941.757 1406
-2187.88 944.872 1415
-2191.89 948.646 1425
-2194.3 951.745 1434
-2198.2 955.5 1444
-2200.51 958.585 1453
-2199.77 960.347 1460
-2197.52 961.455 1466
-2196.75 963.222 1473
-2194.49 964.34 1479
-2193.71 966.113 1486
-2189.97 966.59 1491
-2195.02 970.956 1502
-2194.18 972.73 1509
-2191.88 973.862 1515
-2192.46 976.282 1523
-2191.58 978.062 1530
-2187.83 978.567 1535
-2188.35 980.988 1543
-2188.85 983.409 1551
-2185.1 983.93 1556
-2186.96 986.982 1565
-2187.38 989.4 1573
-2182.24 989.308 1577
-2181.26 991.104 1584
-2177.53 991.653 1589
-2175.17 992.833 1595
-2172.81 994.019 1601
-2171.79 995.828 1608
-2172.11 998.256 1616
-2165.71 997.602 1619
-2163.34 998.805 1625
-2155.67 997.561 1627
-2148.05 996.334 1629
-2137.85 993.902 1629
-2138.18 996.363 1637
-2134.57 996.999 1642
-2123.21 994.008 1641
-2117.08 993.459 1644
-2110.99 992.923 1647
-2108.75 994.203 1653
-2105.24 994.887 1658
-2104.26 996.775 1665
-2100.75 997.469 1670
-2098.5 998.765 1676
-2092.51 998.282 1679
-2084.06 996.624 1680
-2081.84 997.942 1686
-2088.22 1003.4 1699
-2083.5 1003.54 1703
-2072.7 1000.74 1702
-258.667 940.685 2226
-254.045 940.954 2227
-249.982 943.337 2233
-246.884 949.525 2248
-243.293 954.024 2259
-239.658 958.525 2270
-235.771 962.183 2279
-231.342 963.732 2283
-226.799 964.861 2286
-221.759 963.883 2284
-216.92 963.752 2284
-212.361 964.889 2287
-207.701 965.607 2289
-202.769 965.063 2288
-198.448 967.473 2294
-193.597 967.356 2294
-188.583 966.399 2292
-184.141 968.396 2297
-179.367 968.709 2298
-174.286 967.339 2295
-169.663 968.5 2298
-164.885 968.822 2299
-159.826 967.461 2296
-155.186 968.631 2299
-150.535 969.804 2302
-145.555 968.873 2300
-140.709 968.788 2300
-136.04 969.968 2303
-131.019 968.625 2300
-126.066 967.707 2298
-121.439 969.317 2302
-116.695 970.089 2304
-111.604 967.915 2299
-106.906 969.113 2302
-102.197 970.314 2305
-97.1804 968.57 2301
-92.1013 965.988 2295
-87.0101 962.989 2288
-82.093 961.675 2285
-77.392 962.891 2288
-72.7109 964.529 2292
-68.0433 966.591 2297
-63.4379 969.918 2305
-58.6977 971.565 2309
-53.8246 971.111 2308
-48.9562 970.659 2307
-44.1498 971.473 2309
-39.2843 971.027 2308
-34.4235 970.584 2307
-29.5285 968.882 2303
-24.683 968.445 2302
-19.8417 968.011 2301
-15.0506 970.524 2307
-10.2077 970.517 2307
-5.36982 971.353 2309
-0.522629 970.931 2308
4.32568 971.773 2310
9.16285 970.515 2307
13.9996 970.1 2306
18.832 969.69 2305
23.6709 969.702 2305
28.5224 970.138 2306
33.3637 970.156 2306
38.2219 970.598 2307
43.1033 971.463 2309
47.9936 972.331 2311
52.8241 971.94 2310
57.6259 971.131 2308
62.582 972.85 2312
67.3807 972.047 2310
72.2028 971.667 2309
76.9545 970.449 2306
81.8363 970.917 2307
86.5727 969.704 2304
91.4161 969.756 2304
96.4276 971.496 2308
101.325 971.975 2309
106.136 971.616 2308
110.895 970.838 2306
115.848 971.747 2308
120.653 971.396 2307
125.727 973.154 2311
130.649 973.651 2312
135.46 973.308 2311
140.146 972.126 2308
144.821 970.947 2305
149.484 969.771 2302
154.539 971.125 2305
159.607 972.482 2308
164.618 973.421 2310
169.566 973.942 2311
174.746 975.73 2315
179.401 974.571 2312
184.045 973.414 2309
188.924 973.525 2309
193.72 973.217 2308
198.256 971.647 2304
203.041 971.344 2303
208.185 972.732 2306
213.066 972.858 2306
218.138 973.83 2308
222.834 973.118 2306
227.622 972.83 2305
232.004 970.856 2300
236.677 970.152 2298
241.238 969.028 2295
246.217 969.595 2296
250.984 969.322 2295
255.972 969.895 2296
261.194 971.317 2299
266.894 974.432 2306
271.329 972.903 2302
276.231 973.066 2302
281.256 973.656 2303
286.288 974.248 2304
290.443 971.884 2298
295.603 972.905 2300
299.989 971.391 2296
303.698 967.764 2287
306.426 961.175 2271
308.815 953.741 2253
309.459 941.226 2223
312.804 937.178 2213
316.54 934.402 2206
319.958 930.78 2197
-2194.71 944.414 1388
-2189.42 944.154 1392
-2188.86 945.937 1399
-2186.73 947.046 1405
-2187.69 949.505 1413
-2188.63 951.961 1421
-2195.66 957.085 1433
-2199.55 960.859 1443
-2204.9 965.286 1454
-2205.64 967.713 1462
-2204.86 969.479 1469
-2202.56 970.587 1475
-2197.3 970.389 1479
-2195.02 971.513 1485
-2192.75 972.641 1491
-2194.86 975.727 1500
-2195.48 978.159 1508
-2193.17 979.294 1514
-2193.74 981.725 1522
-2191.42 982.868 1528
-2187.67 983.375 1533
-2188.19 985.809 1541
-2187.27 987.604 1548
-2184.94 988.764 1554
-2184 990.564 1561
-2184.44 992.998 1569
-2177.92 992.275 1572
-2176.96 994.085 1579
-2170.5 993.384 1582
-2166.81 993.952 1587
-2160.41 993.277 1590
-2156.75 993.864 1595
-2161.18 998.187 1606
-2157.5 998.779 1611
-2157.84 1001.23 1619
-2148.86 999.37 1620
-2146.55 1000.6 1626
-2127.15 993.858 1619
-2130.14 997.567 1629
-2120.06 995.16 1629
-2116.53 995.823 1634
-2113 996.491 1639
-2110.77 997.774 1645
-2107.25 998.454 1650
-2105.02 999.746 1656
-2101.51 1000.44 1661
-2095.49 999.936 1664
-2089.51 999.446 1667
-2084.8 999.566 1671
-2077.62 998.5 1673
-2075.43 999.832 1679
-2086.76 1007.7 1696
-2084.5 1009.03 1702
-265.102 951.629 2239
-259.752 949.345 2234
-254.426 947.066 2229
-250.58 950.312 2237
-247.252 955.685 2250
-243.331 958.935 2258
-239.485 962.611 2267
-235.188 964.591 2272
-230.568 965.3 2274
-225.843 965.587 2275
-221.212 966.302 2277
-216.29 965.745 2276
-211.374 965.193 2275
-206.555 965.067 2275
-201.737 964.944 2275
-197.009 965.248 2276
-192.277 965.556 2277
-187.626 966.29 2279
-183.288 968.722 2285
-178.537 969.037 2286
-173.63 968.508 2285
-169.025 969.676 2288
-164.266 970 2289
-159.295 969.056 2287
-154.536 969.385 2288
-149.97 970.988 2292
-145.009 970.052 2290
-140.12 969.543 2289
-135.412 970.308 2291
-130.527 969.805 2290
-125.537 968.457 2287
-120.931 970.077 2291
-116.106 970.006 2291
-111.136 968.668 2288
-106.412 969.449 2290
-101.593 969.387 2290
-96.6892 968.481 2288
-91.6745 966.308 2283
-86.6818 964.138 2278
-81.8545 963.664 2277
-77.0999 964.04 2278
-72.3736 964.841 2280
-67.6691 966.068 2283
-63.0352 968.568 2289
-58.2241 968.532 2289
-53.3902 968.075 2288
-48.5609 967.621 2287
-43.832 969.286 2291
-39.0014 968.838 2290
-34.2202 969.662 2292
-29.4181 970.066 2293
-24.6013 970.049 2293
-19.7502 968.344 2289
-14.9749 970.448 2294
-10.152 970.018 2293
-5.34275 971.282 2296
-0.519917 970.434 2294
4.302 971.281 2296
9.12043 970.862 2295
13.9469 971.292 2296
18.7367 969.609 2292
23.5719 970.467 2294
28.4029 970.906 2295
33.2242 970.924 2295
38.0289 970.522 2294
42.8859 971.392 2296
47.7309 971.842 2297
52.535 971.448 2296
57.31 970.635 2294
62.2398 972.363 2298
67.0997 972.824 2299
71.87 972.019 2297
76.733 972.487 2298
81.5298 972.11 2297
86.2104 970.467 2293
91.0337 970.52 2293
95.9415 971.422 2295
100.639 970.211 2292
105.463 970.272 2292
110.335 970.76 2293
115.314 972.098 2296
120.149 972.167 2296
125.312 974.782 2302
130.275 975.705 2304
135.013 974.937 2302
139.682 973.748 2299
144.278 972.139 2295
148.729 969.684 2289
153.759 971.045 2292
158.872 972.834 2296
163.718 972.93 2296
168.639 973.453 2297
173.793 975.251 2301
178.421 974.084 2298
183.118 973.345 2296
188.054 973.88 2297
192.66 972.722 2294
197.255 971.566 2291
202.192 972.11 2292
207.225 973.081 2294
212.084 973.207 2294
217.322 975.032 2298
222.193 975.164 2298
226.77 974.025 2295
231.033 971.616 2289
235.685 970.907 2287
240.225 969.776 2284
245.077 969.922 2284
250.04 970.495 2285
255.233 971.921 2288
260.214 972.501 2289
265.548 974.358 2293
269.959 972.819 2289
274.955 973.408 2290
279.714 973.15 2289
284.72 973.745 2290
288.847 971.366 2284
293.98 972.392 2286
298.339 970.869 2282
302.419 968.497 2276
305.666 963.574 2264
308.727 958.226 2251
309.645 946.492 2223
312.993 942.422 2213
316.013 937.501 2201
-2192.4 950.132 1392
-2193.39 952.599 1400
-2191.23 953.707 1406
-2196.83 958.201 1417
-2197.72 960.658 1425
-2206.25 966.472 1438
-2205.51 968.243 1445
-2209.31 972.02 1455
-2208.52 973.788 1462
-2207.72 975.558 1469
-2203.91 976.004 1474
-2200.12 976.461 1479
-2196.35 976.927 1484
-2194.07 978.059 1490
-2194.71 980.505 1498
-2195.33 982.949 1506
-2193.02 984.09 1512
-2192.15 985.884 1519
-2191.27 987.681 1526
-2187.52 988.188 1531
-2188.04 990.636 1539
-2185.71 991.797 1545
-2184.79 993.604 1552
-2179.65 993.497 1556
-2178.71 995.313 1563
-2172.22 994.589 1566
-2171.29 996.415 1573
-2160.72 993.82 1573
-2158.44 995.03 1579
-2150.72 993.73 1581
-2148.46 994.956 1587
-2148.89 997.437 1595
-2150.63 1000.54 1604
-2151 1003.02 1612
-2143.38 1001.77 1614
-2137.12 1001.15 1617
-2121.69 996.229 1613
-2119.47 997.501 1619
-2109.43 995.089 1619
-2103.36 994.539 1622
-2102.47 996.447 1629
-2100.29 997.747 1635
-2094.26 997.225 1638
-2094.63 999.751 1646
-2094.97 1002.28 1654
-2088.98 1001.78 1657
-2084.27 1001.89 1661
-2084.57 1004.42 1669
-2081.12 1005.15 1674
-2073.96 1004.09 1676
-270.759 959.659 2245
-265.736 958.641 2243
-260.724 957.626 2241
-255.38 955.333 2236
-251.068 956.889 2240
-246.851 958.874 2245
-242.4 960.007 2248
-238.467 963.277 2256
-233.984 964.415 2259
-229.592 965.982 2263
-224.986 966.698 2265
-220.374 967.417 2267
-215.565 967.285 2267
-210.665 966.729 2266
-205.862 966.603 2266
-200.972 966.054 2265
-196.348 966.787 2267
-191.548 966.669 2267
-186.997 967.834 2270
-182.596 969.854 2275
-177.941 970.598 2277
-173.203 970.918 2278
-168.61 972.093 2281
-163.79 971.993 2281
-158.833 971.043 2279
-153.953 970.523 2278
-149.144 970.431 2278
-144.21 969.491 2276
-139.53 970.257 2278
-134.784 970.6 2279
-129.978 970.52 2279
-125.064 969.591 2277
-120.37 970.369 2279
-115.567 970.298 2279
-110.668 969.378 2277
-105.872 969.313 2277
-101.121 969.676 2278
-96.2399 968.765 2276
-91.1672 965.729 2269
-86.2389 963.973 2265
-81.4362 963.497 2264
-76.7061 963.875 2265
-72.0361 965.106 2268
-67.4133 967.192 2273
-62.6874 968.004 2275
-57.8774 967.541 2274
-53.0722 967.083 2273
-48.314 967.477 2274
-43.6096 969.151 2278
-38.8205 969.126 2278
-34.0915 970.806 2282
-29.3203 971.637 2284
-24.5088 971.195 2283
-19.6586 968.63 2277
-14.9057 970.746 2282
-10.0963 969.462 2279
-5.31595 971.159 2283
-0.517949 970.732 2282
4.28363 972.008 2285
9.08195 971.587 2284
13.8883 972.019 2285
18.6577 970.327 2281
23.4622 970.765 2282
28.2587 970.78 2282
33.0122 969.522 2279
37.7862 969.118 2278
42.6123 969.992 2280
47.4475 970.87 2282
52.1999 970.049 2280
56.9692 969.656 2279
61.8434 970.968 2282
66.6724 971.432 2283
71.506 971.899 2284
76.4111 973.22 2287
81.2588 973.693 2288
85.9983 972.891 2286
90.8496 973.37 2287
95.6221 973 2286
100.304 971.782 2283
105.111 971.843 2283
109.92 971.908 2283
114.78 972.401 2284
119.75 973.749 2287
124.896 976.377 2293
129.674 976.027 2292
134.331 974.829 2289
138.976 973.633 2286
143.484 971.589 2281
147.972 969.546 2276
153.18 972.193 2282
158.205 973.565 2285
163.103 974.087 2286
168.153 975.465 2289
173.217 976.846 2292
177.751 975.247 2288
182.59 975.355 2288
187.266 974.614 2286
191.767 973.023 2282
196.426 972.287 2280
201.43 973.26 2282
206.355 973.809 2283
211.379 974.788 2285
216.412 975.77 2287
221.166 975.475 2286
225.522 973.476 2281
229.96 971.906 2277
234.589 971.193 2275
239.318 970.909 2274
244.044 970.628 2273
248.986 971.204 2274
253.936 971.783 2275
258.778 971.938 2275
263.855 972.951 2277
268.824 973.539 2278
273.439 972.848 2276
278.171 972.588 2275
283.025 972.758 2275
287.503 971.648 2272
292.484 972.251 2273
297.081 971.574 2271
301.405 970.044 2267
305.445 967.66 2261
308.09 960.998 2245
309.275 950.055 2219
312.616 945.962 2209
315.774 941.442 2198
318.886 936.922 2187
-2193.82 955.446 1391
-2199.52 959.979 1402
-2194.2 959.718 1406
-2202.89 965.594 1419
-2192.94 963.307 1420
-2199.97 968.485 1432
-2197.74 969.599 1438
-2206.15 975.424 1451
-2203.87 976.534 1457
-2206.1 979.655 1466
-2205.29 981.437 1473
-2202.98 982.556 1479
-2196.22 981.694 1482
-2195.41 983.491 1489
-2197.52 986.607 1498
-2196.66 988.403 1505
-2194.34 989.546 1511
-2190.58 990.042 1516
-2189.7 991.849 1523
-2185.95 992.359 1528
-2185.06 994.173 1535
-2182.74 995.343 1541
-2183.24 997.807 1549
-2178.11 997.699 1553
-2172.99 997.603 1557
-2166.52 996.879 1560
-2164.23 998.083 1566
-2155.07 996.113 1567
-2151.44 996.701 1572
-2145.1 996.032 1575
-2140.16 996.009 1579
-2139.28 997.883 1586
-2138.39 999.758 1593
-2138.82 1002.26 1601
-2135.23 1002.89 1606
-2130.33 1002.9 1610
-2118.87 999.818 1609
-2111.42 998.62 1611
-2097.5 994.345 1608
-2091.47 993.803 1611
-2091.93 996.35 1619
-2093.65 999.509 1628
-2088.93 999.601 1632
-2093.15 1003.98 1643
-2094.77 1007.13 1652
-2088.77 1006.62 1655
-2080.29 1004.92 1656
-2078.11 1006.26 1662
-271.166 965.846 2247
-265.542 962.673 2240
-260.533 961.653 2238
-255.306 959.777 2234
-250.772 960.482 2236
-245.901 959.901 2235
-241.684 961.9 2240
-237.448 963.901 2245
-232.779 964.187 2246
-228.411 965.763 2250
-224.029 967.342 2254
-219.535 968.495 2257
-214.649 967.933 2256
-210.048 968.662 2258
-205.077 967.678 2256
-200.206 967.126 2255
-195.427 967.005 2255
-190.734 967.317 2256
-186.204 968.488 2259
-181.663 969.662 2262
-176.954 969.982 2263
-172.243 970.305 2264
-167.603 971.058 2266
-162.884 971.387 2267
-158.023 970.861 2266
-153.302 971.194 2267
-148.645 971.959 2269
-143.473 969.301 2263
-138.818 970.072 2265
-134.215 971.273 2268
-129.486 971.622 2269
-124.59 970.688 2267
-119.967 971.898 2270
-115.13 971.399 2269
-110.201 970.046 2266
-105.378 969.553 2265
-100.605 969.49 2265
-95.8329 969.43 2265
-90.8606 967.234 2260
-86.0626 966.752 2259
-81.3056 966.701 2259
-76.5492 966.653 2259
-71.8573 967.464 2261
-67.2168 969.133 2265
-62.4498 969.094 2265
-57.6324 968.202 2263
-52.8474 967.74 2262
-48.1307 968.565 2264
-43.4061 969.393 2266
-38.6395 969.368 2266
-33.9628 971.912 2272
-29.2098 972.748 2274
-24.4165 972.304 2273
-19.6016 970.58 2269
-14.8495 971.852 2272
-10.0537 970.134 2268
-5.28913 970.984 2270
-0.515457 970.555 2269
4.2615 971.838 2272
9.03946 971.842 2272
13.805 970.994 2270
18.5708 970.575 2269
23.3733 971.871 2272
28.1517 971.886 2272
32.8869 970.622 2269
37.6924 971.498 2271
42.4697 971.522 2271
47.2055 970.693 2269
51.9105 969.44 2266
56.6781 969.472 2266
61.4467 969.508 2266
66.1862 969.118 2265
71.0476 970.443 2268
76.0225 973.055 2274
80.8455 973.53 2275
85.6736 974.008 2276
90.5863 975.345 2279
95.2612 974.117 2276
99.8803 972.464 2272
104.714 972.953 2273
109.456 972.59 2272
114.145 971.801 2270
119.14 973.584 2274
124.263 976.226 2280
128.903 975.018 2277
133.707 975.098 2277
138.39 974.323 2275
142.941 972.695 2271
147.411 970.641 2266
152.466 972.445 2270
157.331 972.967 2271
162.202 973.492 2272
167.151 974.449 2274
172.036 974.98 2275
176.693 974.229 2273
181.343 973.48 2271
186.068 973.162 2270
190.79 972.848 2269
195.338 971.678 2266
200.316 972.656 2268
205.123 972.779 2268
210.025 973.333 2269
214.934 973.891 2270
220.041 975.31 2273
224.175 972.441 2266
228.887 972.15 2265
233.803 972.719 2266
238.725 973.293 2267
243.117 971.721 2263
248.042 972.3 2264
253.085 973.311 2266
257.569 972.178 2263
262.507 972.766 2264
267.452 973.357 2265
272.523 974.381 2267
276.994 973.258 2264
281.828 973.428 2264
286.285 972.312 2261
291.375 973.348 2263
295.953 972.667 2261
300.391 971.558 2258
304.28 968.73 2251
307.316 963.321 2238
308.488 952.317 2212
312.807 951.215 2209
316.254 947.531 2200
-2196.25 963.266 1398
-2192.51 963.692 1403
-2199.67 968.921 1415
-2192.82 967.986 1418
-2202.93 974.555 1432
-2205.27 977.704 1441
-2212.13 982.876 1453
-2209.82 983.983 1459
-2210.51 986.44 1467
-2205.18 986.214 1471
-2202.87 987.338 1477
-2197.59 987.134 1481
-2198.25 989.602 1489
-2197.4 991.406 1496
-2198.01 993.872 1504
-2195.68 995.018 1510
-2193.35 996.169 1516
-2189.58 996.671 1521
-2185.83 997.182 1526
-2183.52 998.353 1532
-2179.78 998.88 1537
-2178.89 1000.71 1544
-2170.96 999.312 1546
-2165.88 999.223 1550
-2162.21 999.787 1555
-2158.56 1000.36 1560
-2150.79 999.022 1562
-2147.18 999.616 1567
-2139.49 998.309 1569
-2129.14 995.751 1569
-2126.97 997.015 1575
-2123.45 997.651 1580
-2121.27 998.925 1586
-2120.43 1000.83 1593
-2119.57 1002.74 1600
-2110.78 1000.9 1601
-2103.36 999.699 1603
-2088.16 994.783 1599
-2084.77 995.488 1604
-2083.97 997.436 1611
-2087.02 1001.24 1621
-2083.61 1001.95 1626
-2094.23 1009.44 1642
-2094.58 1011.99 1650
-2089.84 1012.09 1654
-275.271 968.33 2240
-270.849 969.459 2243
-265.705 967.997 2240
-260.926 967.836 2240
-255.92 966.813 2238
-251.15 966.658 2238
-246.602 967.368 2240
-242.048 968.082 2242
-237.594 969.231 2245
-232.713 968.655 2244
-228.348 970.24 2248
-223.569 970.102 2248
-218.89 970.397 2249
-214.209 970.696 2250
-209.525 970.998 2251
-204.475 969.577 2248
-199.795 969.885 2249
-194.939 969.333 2248
-190.174 969.215 2248
-185.493 969.531 2249
-180.809 969.85 2250
-176.123 970.172 2251
-171.282 969.635 2250
-166.595 969.962 2251
-161.976 970.724 2253
-157.142 970.195 2252
-152.313 969.67 2251
-147.818 971.301 2255
-142.862 969.92 2252
-138.228 970.696 2254
-133.704 972.335 2258
-128.994 972.686 2259
-124.226 972.608 2259
-119.564 973.395 2261
-114.794 973.323 2261
-109.83 971.533 2257
-105.023 971.037 2256
-100.177 970.113 2254
-95.4678 970.484 2255
-90.6344 969.566 2253
-85.8863 969.512 2253
-81.103 969.031 2252
-76.3585 968.983 2252
-71.6149 968.938 2252
-66.9014 969.326 2253
-62.1292 968.856 2252
-57.4128 969.249 2253
-52.6692 969.216 2253
-47.9899 970.475 2256
-43.2794 971.308 2258
-38.5438 971.713 2259
-33.8789 974.272 2265
-29.1249 974.682 2266
-24.324 973.376 2263
-19.5272 971.641 2259
-14.7868 972.491 2261
-10.007 970.333 2256
-5.26694 971.618 2259
-0.514101 972.476 2261
4.24527 972.907 2262
9.01287 973.771 2264
13.7768 973.778 2264
18.5326 973.358 2263
23.3049 973.8 2264
28.0692 973.816 2264
32.776 972.113 2260
37.549 972.565 2261
42.2706 971.728 2259
46.9424 970.034 2255
51.6436 969.204 2253
56.4121 969.667 2254
61.1039 968.842 2252
65.9046 969.741 2254
70.8083 971.933 2259
75.7339 974.129 2264
80.5033 974.176 2264
85.3112 974.657 2265
90.124 975.14 2266
94.7323 973.475 2262
99.3687 972.243 2259
104.224 973.165 2261
108.896 972.369 2259
113.61 972.006 2258
118.583 973.798 2262
123.52 975.164 2265
128.018 973.087 2260
132.848 973.597 2261
137.5 972.818 2259
142.02 971.18 2255
146.524 969.545 2251
151.55 971.359 2255
156.387 971.883 2256
161.3 972.841 2258
166.15 973.372 2259
171.157 974.767 2262
175.789 974.011 2260
180.494 973.689 2259
185.032 972.507 2256
189.896 973.052 2257
194.421 971.876 2254
199.377 972.858 2256
204.253 973.412 2257
209.134 973.97 2258
213.833 973.668 2257
219.013 975.525 2261
223.123 972.64 2254
227.813 972.346 2253
232.81 973.35 2255
237.712 973.925 2256
241.975 971.913 2251
246.768 972.063 2251
251.675 972.647 2252
256.246 971.939 2250
261.043 972.097 2250
265.725 971.826 2249
271.126 974.151 2254
275.694 973.454 2252
280.505 973.625 2252
285.193 973.366 2251
290.265 974.407 2253
294.431 972.424 2248
299.111 972.173 2247
303.249 970.194 2242
305.718 963.024 2225
308.118 955.854 2208
312.432 954.746 2205
316.447 952.774 2200
320.298 950.371 2194
-2205.58 972.09 1402
-2200.22 971.811 1406
-2201.12 974.303 1414
-2195.8 974.045 1418
-2202.84 979.279 1430
-2205.18 982.445 1439
-2212.05 987.647 1451
-2211.25 989.437 1458
-2211.94 991.905 1466
-2205.09 990.998 1469
-2202.78 992.126 1475
-2198.98 992.589 1480
-2196.67 993.731 1486
-2197.31 996.212 1494
-2196.45 998.026 1501
-2192.67 998.515 1506
-2188.91 999.013 1511
-2183.72 998.862 1515
-2181.42 1000.04 1521
-2179.13 1001.22 1527
-2175.41 1001.75 1532
-2173.13 1002.95 1538
-2165.21 1001.54 1540
-2155.96 999.512 1541
-2153.73 1000.74 1547
-2147.34 1000.03 1550
-2141 999.339 1553
-2138.81 1000.59 1559
-2137.98 1002.48 1566
-2127.62 999.907 1566
-2124.1 1000.54 1571
-2121.94 1001.82 1577
-2114.41 1000.57 1579
-2109.6 1000.59 1583
-2110.12 1003.15 1591
-2101.37 1001.31 1592
-2091.36 998.856 1592
-2082.73 997.052 1593
-2078.06 997.14 1597
-2076 998.484 1603
-2081.67 1003.56 1615
-2079.57 1004.9 1621
-2088.95 1011.81 1636
-2089.32 1014.38 1644
-274.948 971.927 2236
-270.532 973.063 2239
-265.275 971.159 2235
-260.387 970.562 2234
-255.391 969.534 2232
-250.743 969.812 2233
-246.093 970.093 2234
-241.549 970.811 2236
-237.21 972.4 2240
-232.13 970.953 2237
-227.573 971.679 2239
-222.911 971.974 2240
-218.538 973.574 2244
-213.674 973.007 2243
-209.188 974.177 2246
-204.146 972.749 2243
-199.296 972.191 2242
-194.191 970.336 2238
-189.444 970.218 2238
-184.782 970.536 2239
-180.116 970.857 2240
-175.527 971.615 2242
-170.778 971.508 2242
-166.104 971.838 2243
-161.5 972.603 2245
-156.75 972.506 2245
-152 972.411 2245
-147.58 974.484 2250
-142.633 973.096 2247
-138.006 973.875 2249
-133.194 973.359 2248
-128.559 974.145 2250
-123.697 973.201 2248
-118.95 973.127 2248
-114.204 973.055 2248
-109.459 972.987 2248
-104.668 972.488 2247
-99.883 971.992 2246
-95.2298 972.797 2248
-90.4082 971.875 2246
-85.7483 972.687 2248
-80.9365 971.77 2246
-76.1679 971.289 2245
-71.3724 970.378 2243
-66.5859 969.471 2241
-61.781 968.133 2238
-57.1166 968.962 2240
-52.3975 968.928 2240
-47.8067 971.493 2246
-43.1335 972.762 2249
-38.3968 972.737 2249
-33.7052 974.012 2252
-28.9629 973.993 2252
-24.1885 972.679 2249
-19.4443 972.233 2248
-14.724 973.087 2250
-9.96446 970.917 2245
-5.24008 971.345 2246
-0.512061 973.073 2250
4.22311 972.641 2249
8.96634 973.51 2251
13.7059 973.516 2251
18.4616 974.391 2253
23.2056 974.403 2253
27.9622 974.851 2254
32.6506 973.14 2250
37.4221 974.026 2252
42.1277 973.185 2250
46.7833 971.482 2246
51.4914 971.079 2245
56.2461 971.545 2246
60.8965 970.282 2243
65.6813 971.186 2245
70.5378 972.958 2249
75.3781 974.3 2252
80.1252 974.347 2252
84.8729 974.398 2252
89.7012 975.317 2254
94.2871 973.642 2250
98.9011 972.402 2247
103.688 972.897 2248
108.48 973.394 2249
113.025 971.731 2245
117.921 973.1 2248
122.777 974.039 2250
127.246 971.951 2245
131.988 972.03 2245
136.671 971.679 2244
141.225 970.465 2241
145.897 970.12 2240
150.903 971.943 2244
155.719 972.47 2245
160.541 973 2246
165.515 974.4 2249
170.353 974.936 2250
175.118 975.042 2250
179.885 975.15 2250
184.653 975.262 2250
189.339 974.943 2249
193.936 974.193 2247
198.88 975.181 2249
203.382 974.004 2246
207.965 973.263 2244
212.826 973.825 2245
217.887 975.259 2248
222.17 973.225 2243
226.941 973.363 2243
231.92 974.372 2245
236.698 974.516 2245
241.263 973.795 2243
245.932 973.51 2242
250.823 974.097 2243
255.264 972.95 2240
259.811 972.24 2238
264.469 971.967 2237
269.728 973.87 2241
274.394 973.603 2240
279.307 974.208 2241
284.227 974.817 2242
289.154 975.428 2243
293.433 973.868 2239
298.096 973.616 2238
301.676 969.885 2229
304.944 965.286 2218
308.029 960.252 2206
313.05 961.315 2208
316.499 957.591 2199
322.249 960.837 2206
-2198.57 975.808 1403
-2197.92 977.621 1410
-2195.71 978.746 1416
-2199.67 982.632 1426
-2203.57 986.506 1436
-2207.41 990.371 1446
-2208.15 992.858 1454
-2207.34 994.662 1461
-2202.02 994.432 1465
-2199.71 995.568 1471
-2197.41 996.71 1477
-2195.11 997.858 1483
-2195.76 1000.35 1491
-2194.91 1002.18 1498
-2188.22 1001.34 1501
-2181.57 1000.51 1504
-2174.96 999.7 1507
-2171.28 1000.23 1512
-2163.31 998.792 1514
-2163.94 1001.32 1522
-2161.71 1002.53 1528
-2155.25 1001.79 1531
-2144.63 999.1 1531
-2145.25 1001.65 1539
-2138.89 1000.94 1542
-2135.34 1001.55 1547
-2133.17 1002.81 1553
-2133.74 1005.37 1561
-2122.03 1002.13 1560
-2114.47 1000.85 1562
-2109.66 1000.87 1566
-2100.85 998.984 1567
-2096.1 999.026 1571
-2094.02 1000.35 1577
-2090.63 1001.04 1582
-2079.34 997.951 1581
-2077.31 999.296 1587
-2073.96 1000.02 1592
-2071.92 1001.37 1598
-2076.33 1005.85 1609
-275.119 977.264 2236
-270.7 978.405 2239
-265.202 975.617 2233
-260.082 974.143 2230
-255.549 974.856 2232
-250.674 974.263 2231
-245.915 974.108 2231
-241.266 974.394 2232
-237.039 976.428 2237
-231.962 974.973 2234
-227.511 976.14 2237
-222.65 975.564 2236
-218.381 977.608 2241
-213.234 975.73 2237
-208.851 977.344 2241
-203.999 976.779 2240
-199.152 976.219 2239
-194.224 975.225 2237
-189.477 975.106 2237
-184.73 974.99 2237
-179.986 974.877 2237
-175.243 974.767 2237
-170.426 974.225 2236
-165.836 974.992 2238
-161.24 975.762 2240
-156.567 976.099 2241
-151.891 976.439 2242
-147.278 977.218 2244
-142.212 974.951 2239
-137.6 975.735 2241
-132.802 975.216 2240
-128.067 975.136 2240
-123.222 974.187 2238
-118.546 974.548 2239
-113.766 974.041 2238
-109.039 973.972 2238
-104.313 973.906 2238
-99.6331 974.278 2239
-94.9494 974.653 2240
-90.2625 975.031 2241
-85.534 974.977 2241
-80.7701 974.49 2240
-75.9772 973.572 2238
-71.1936 972.656 2236
-66.4784 972.613 2236
-61.681 971.269 2233
-56.9732 971.232 2233
-52.2661 971.198 2233
-47.6658 973.342 2238
-42.949 973.314 2238
-38.2838 974.593 2241
-33.5614 974.571 2241
-28.8393 974.551 2241
-24.0636 972.361 2236
-19.3526 972.347 2236
-14.6482 972.771 2237
-9.92635 971.894 2235
-5.22486 973.194 2238
-0.510763 974.496 2241
4.21062 974.497 2241
8.93174 974.501 2241
13.6468 974.073 2240
18.3827 974.952 2242
23.0959 974.529 2241
27.8302 974.98 2242
32.5399 974.563 2241
37.3121 975.889 2244
41.966 974.174 2240
46.6451 973.331 2238
51.3624 973.361 2238
56.1047 973.829 2239
60.7436 972.56 2236
65.4871 973.033 2237
70.2043 973.075 2237
74.8884 972.684 2236
79.6045 972.732 2236
84.4726 974.522 2240
89.3181 975.881 2243
94.0094 975.502 2242
98.7854 975.996 2243
103.474 975.623 2242
108.16 975.253 2241
112.59 972.709 2235
117.416 973.65 2237
122.142 973.724 2237
126.643 972.059 2233
131.363 972.139 2233
136.145 972.656 2234
140.744 971.871 2232
145.4 971.523 2231
150.39 973.356 2235
155.12 973.45 2235
159.924 973.983 2236
164.954 975.825 2240
169.624 975.493 2239
174.369 975.599 2239
179.195 976.143 2240
183.863 975.82 2239
188.529 975.498 2238
193.192 975.18 2237
198.029 975.737 2238
202.601 974.988 2236
207.073 973.807 2233
211.914 974.372 2234
216.955 975.813 2237
221.316 974.204 2233
225.967 973.906 2232
231.029 975.356 2235
235.894 975.937 2236
240.336 974.775 2233
244.986 974.488 2232
249.859 975.078 2233
254.395 974.361 2231
258.809 973.209 2228
263.568 973.371 2228
268.811 975.284 2232
273.583 975.452 2232
278.607 976.497 2234
283.515 977.109 2235
288.559 978.161 2237
292.828 976.592 2233
297.348 975.9 2231
300.915 972.149 2222
304.996 970.15 2217
308.499 966.402 2208
313.811 968.346 2212
317.559 965.478 2205
323.034 967.867 2210
327.05 965.879 2205
-2204.78 983.302 1405
-2196.29 981.628 1407
-2190.98 981.368 1411
-2193.43 984.589 1420
-2197.37 988.494 1430
-2202.77 993.076 1441
-2206.57 996.956 1451
-2202.75 997.401 1456
-2198.95 997.855 1461
-2196.66 999.001 1467
-2192.88 999.472 1472
-2186.15 998.599 1475
-2189.8 1002.47 1485
-2188.98 1004.31 1492
-2180.85 1002.8 1494
-2172.77 1001.3 1496
-2170.54 1002.5 1502
-2162.56 1001.04 1504
-2154.63 999.601 1506
-2155.3 1002.15 1514
-2153.11 1003.38 1520
-2146.69 1002.64 1523
-2137.5 1000.6 1524
-2136.75 1002.51 1531
-2133.21 1003.12 1536
-2129.69 1003.74 1541
-2126.17 1004.36 1546
-2124.03 1005.64 1552
-2112.36 1002.4 1551
-2103.48 1000.48 1552
-2098.72 1000.5 1556
-2087.26 997.333 1555
-2083.91 998.028 1560
-2085.88 1001.28 1569
-2081.2 1001.35 1573
-2075.21 1000.79 1576
-2077.13 1004.05 1585
-2075.08 1005.4 1591
-2071.74 1006.13 1596
-270.143 981.121 2233
-264.892 979.197 2229
-259.661 977.276 2225
-255.365 978.871 2229
-250.717 979.152 2230
-245.957 978.997 2230
-241.524 980.162 2233
-237.293 982.207 2238
-231.899 979.427 2232
-227.449 980.6 2235
-222.49 979.582 2233
-218.126 981.2 2237
-213.175 980.188 2235
-208.701 981.372 2238
-203.852 980.805 2237
-199.009 980.241 2236
-194.085 979.242 2234
-189.51 979.999 2236
-184.845 980.321 2237
-179.937 979.331 2235
-175.117 978.782 2234
-170.226 977.799 2232
-165.643 978.57 2234
-160.908 978.469 2234
-156.245 978.808 2235
-151.646 979.588 2237
-147.106 980.809 2240
-142.11 978.967 2236
-137.378 978.88 2236
-132.706 979.234 2237
-127.917 978.715 2236
-123.078 977.762 2234
-118.461 978.562 2236
-113.684 978.052 2235
-108.912 977.545 2234
-104.238 977.916 2235
-99.4723 977.416 2234
-94.7963 977.793 2235
-90.117 978.173 2236
-85.4343 978.556 2237
-80.6037 977.192 2234
-75.9226 977.58 2235
-71.0784 975.785 2231
-66.3114 974.868 2229
-61.5811 974.39 2228
-56.881 974.353 2228
-52.205 974.757 2229
-47.589 976.475 2233
-42.8414 975.572 2231
-38.1368 975.547 2231
-33.4175 975.087 2230
-28.7157 975.068 2230
-23.9819 973.74 2227
-19.3214 975.475 2231
-14.6182 975.464 2231
-9.91058 975.019 2230
-5.20963 975.014 2230
-0.509859 977.198 2235
4.19971 976.762 2234
8.90907 976.766 2234
13.6124 976.335 2233
18.3444 977.657 2236
23.0377 976.795 2234
27.7726 977.685 2236
32.4869 977.703 2236
37.235 978.599 2238
41.898 977.311 2235
46.5695 976.464 2233
51.2559 976.057 2232
55.9889 976.527 2233
60.6176 975.251 2230
65.3224 975.29 2230
69.9961 974.894 2229
74.6328 974.064 2227
79.3329 974.112 2227
84.0339 974.162 2227
88.8152 975.09 2229
93.6058 976.021 2231
98.3616 976.518 2232
102.984 975.705 2230
107.647 975.333 2229
112.155 973.65 2225
116.858 973.721 2225
121.672 974.67 2227
126.324 974.309 2226
131.091 974.826 2227
135.802 974.909 2227
140.389 974.119 2225
144.968 973.331 2223
149.944 975.174 2227
154.522 974.393 2225
159.236 974.49 2225
164.172 975.904 2228
168.668 974.693 2225
173.308 974.361 2224
178.185 975.346 2226
182.909 975.458 2226
187.634 975.573 2226
192.361 975.691 2226
197.178 976.25 2227
201.729 975.497 2225
206.181 974.308 2222
211.191 975.754 2225
216.41 978.079 2230
220.759 976.461 2226
225.499 976.599 2226
230.448 977.619 2228
235.09 977.324 2227
239.3 975.278 2222
243.93 974.989 2221
248.894 976.021 2223
253.526 975.738 2222
258.157 975.458 2221
262.785 975.181 2220
268.134 977.544 2225
272.894 977.712 2225
277.782 978.323 2226
282.676 978.938 2227
287.835 980.435 2230
291.96 978.417 2225
296.6 978.161 2224
300.289 974.829 2216
304.36 972.819 2211
308.272 970.369 2205
313.581 972.325 2209
317.757 970.762 2205
323.382 973.604 2211
328.293 974.248 2212
-2198.45 985.206 1399
-2189.98 983.527 1401
-2192.48 986.77 1410
-2193.37 989.308 1418
-2198.85 993.93 1429
-2201.19 997.15 1438
-2206.53 1001.75 1449
-2199.68 1000.81 1452
-2195.89 1001.27 1457
-2190.61 1001.05 1461
-2188.35 1002.22 1467
-2177.19 999.298 1467
-2179.4 1002.52 1476
-2177.17 1003.71 1482
-2169.09 1002.2 1484
-2162.52 1001.38 1487
-2163.23 1003.94 1495
-2156.71 1003.15 1498
-2147.37 1001.04 1499
-2148.08 1003.61 1507
-2147.34 1005.52 1514
-2140.94 1004.78 1517
-2131.77 1002.73 1518
-2129.65 1004 1524
-2127.53 1005.27 1530
-2119.88 1003.93 1532
-2116.41 1004.57 1537
-2114.32 1005.86 1543
-2105.4 1003.91 1544
-2096.55 1001.99 1545
-2094.52 1003.31 1551
-2084.41 1000.77 1551
-2078.39 1000.19 1554
-2080.4 1003.47 1563
-2077.06 1004.18 1568
-2071.09 1003.62 1571
-264.583 982.767 2225
-259.94 983.044 2226
-256.098 986.414 2234
-251.1 985.372 2232
-246.553 986.098 2234
-242 986.827 2236
-237.441 987.56 2238
-231.94 984.324 2231
-227.489 985.503 2234
-222.629 984.921 2233
-217.97 985.223 2234
-213.118 984.647 2233
-208.459 984.956 2234
-203.615 984.386 2233
-198.866 984.26 2233
-193.945 983.255 2231
-189.374 984.016 2233
-184.795 984.781 2235
-180.049 984.666 2235
-175.226 984.114 2234
-170.409 983.566 2233
-165.746 983.901 2234
-160.864 982.918 2232
-156.202 983.259 2233
-151.537 983.603 2234
-147.001 984.83 2237
-142.072 983.419 2234
-137.341 983.331 2234
-132.611 983.247 2234
-127.825 982.726 2233
-122.935 981.327 2230
-118.323 982.131 2232
-113.653 982.499 2233
-108.882 981.989 2232
-104.257 982.802 2234
-99.4898 982.299 2233
-94.7706 982.238 2233
-90.0926 982.62 2234
-85.373 982.565 2234
-80.618 982.073 2233
-75.9019 982.024 2233
-71.091 980.659 2230
-66.2635 978.857 2226
-61.5366 978.377 2225
-56.8655 978.78 2226
-52.1438 978.306 2225
-47.4908 979.154 2227
-42.7913 979.126 2227
-38.0923 979.1 2227
-33.4085 979.518 2228
-28.695 979.058 2227
-23.9646 977.723 2224
-19.2903 978.588 2226
-14.6013 979.017 2227
-9.89467 978.13 2225
-5.20374 978.565 2226
-0.509185 980.321 2230
4.19096 979.443 2228
8.89438 979.886 2229
13.5902 979.454 2228
18.2983 979.903 2229
22.9694 978.597 2226
27.6902 979.492 2228
32.4197 980.39 2230
37.1245 980.411 2230
41.7924 979.555 2228
46.473 979.143 2227
51.1498 978.734 2226
55.8478 978.767 2226
60.5193 978.363 2225
65.1574 977.523 2223
69.8195 977.125 2222
74.4441 976.29 2220
79.1324 976.338 2220
83.9349 977.708 2223
88.631 977.761 2223
93.4957 979.577 2227
98.1579 979.197 2226
102.724 977.939 2223
107.375 977.565 2222
112.023 977.193 2221
116.668 976.824 2220
121.364 976.898 2220
126.061 976.975 2220
130.819 977.495 2221
135.337 976.257 2218
140.097 976.783 2219
144.928 977.752 2221
149.768 978.725 2223
154.27 977.499 2220
159.12 978.477 2222
163.905 979.018 2223
168.241 976.919 2218
172.87 976.585 2217
177.735 977.576 2219
182.529 978.129 2220
187.16 977.803 2219
191.962 978.362 2220
196.68 978.484 2220
201.492 979.049 2221
205.845 977.413 2217
210.752 978.425 2219
215.574 978.999 2220
220.202 978.694 2219
224.727 977.951 2217
229.453 978.093 2217
234.287 978.679 2218
238.588 977.062 2214
243.204 976.772 2213
247.929 976.925 2213
252.771 977.524 2214
257.504 977.684 2214
262.12 977.405 2213
267.217 978.896 2216
272.206 979.949 2218
276.707 979.237 2216
281.329 978.971 2215
286.595 980.917 2219
290.699 978.888 2214
295.184 978.188 2212
299.529 977.048 2209
303.587 975.026 2204
308.186 974.776 2203
313.068 975.414 2204
317.524 974.727 2202
322.853 976.699 2206
328.054 978.233 2209
332.065 976.226 2204
-2193.07 989.637 1401
-2193.99 992.189 1409
-2193.33 994.036 1416
-2192.66 995.884 1423
-2196.57 999.827 1433
-2198.89 1003.06 1442
-2190.55 1001.44 1444
-2189.82 1003.29 1451
-2184.56 1003.08 1455
-2180.84 1003.57 1460
-2172.67 1002.01 1462
-2176.39 1005.94 1472
-2174.17 1007.13 1478
-2164.63 1004.94 1479
-2155.16 1002.76 1480
-2155.91 1005.34 1488
-2147.98 1003.88 1490
-2137.24 1001.09 1490
-2138 1003.69 1498
-2141.57 1007.63 1508
-2130.95 1004.89 1508
-2124.63 1004.17 1511
-2122.55 1005.45 1517
-2116.29 1004.76 1520
-2110.06 1004.08 1523
-2109.39 1006.04 1530
-2105.96 1006.7 1535
-2101.18 1006.71 1539
-2096.41 1006.73 1543
-2094.37 1008.06 1549
-2082.91 1004.85 1548
-2079.58 1005.56 1553
-2077.58 1006.91 1559
-2072.92 1006.99 1563
-258.702 983.055 2214
-255.113 987.332 2224
-251.033 989.835 2230
-245.935 988.347 2227
-241.828 990.855 2233
-237.485 992.479 2237
-231.982 989.225 2230
-227.021 988.193 2228
-222.47 988.938 2230
-217.814 989.242 2231
-212.584 986.89 2226
-207.936 987.2 2227
-203.287 987.514 2228
-198.456 986.944 2227
-193.632 986.378 2226
-189.323 988.472 2231
-185.242 991.898 2239
-180.485 991.783 2239
-175.65 991.228 2238
-170.745 990.233 2236
-166.147 991.013 2238
-161.037 988.695 2233
-156.3 988.596 2233
-151.836 990.269 2237
-147.093 990.175 2237
-142.097 988.314 2233
-137.365 988.226 2233
-132.516 987.256 2231
-127.619 985.847 2228
-122.846 985.325 2227
-118.344 987.019 2231
-113.521 986.061 2229
-108.853 986.434 2230
-104.182 986.809 2231
-99.3738 985.86 2229
-94.5753 984.915 2227
-89.9473 985.741 2229
-85.2353 985.686 2229
-80.5242 985.634 2229
-75.8817 986.469 2231
-71.1038 985.538 2229
-66.3351 984.611 2227
-61.5199 982.802 2223
-56.799 982.323 2222
-52.1532 983.172 2224
-47.4353 982.699 2223
-42.7029 981.786 2221
-37.9965 981.319 2220
-33.3096 981.296 2220
-28.5972 980.393 2218
-23.9151 980.376 2218
-19.2506 981.246 2220
-14.5844 982.561 2223
-9.88766 982.111 2222
-5.2002 982.548 2223
-0.508739 983.872 2226
4.18757 983.431 2225
8.87968 982.993 2224
13.574 983 2224
18.2849 983.894 2226
22.9421 982.138 2222
27.6575 983.038 2224
32.3961 984.383 2227
37.0976 984.404 2227
41.7619 983.545 2225
46.5018 984.456 2227
51.1585 983.602 2225
55.757 981.867 2221
60.4751 982.346 2222
65.0808 981.058 2219
69.7057 980.216 2217
74.2892 978.935 2214
79.0035 979.425 2215
83.7226 979.918 2216
88.5267 981.298 2219
93.302 982.239 2221
98.0865 983.183 2223
102.603 981.477 2219
107.2 980.658 2217
111.841 980.284 2216
116.478 979.913 2215
121.166 979.987 2215
125.913 980.507 2216
130.665 981.03 2217
135.117 979.343 2213
139.995 980.757 2216
144.692 980.846 2216
149.524 981.823 2218
154.019 980.591 2215
158.861 981.574 2217
163.565 981.675 2217
167.815 979.122 2211
172.432 978.786 2210
177.206 979.338 2211
182.232 981.223 2215
